# .PCD v0.7 - Point Cloud Data file format
VERSION 0.7
FIELDS x y z
SIZE 4 4 4
TYPE F F F
COUNT 1 1 1
WIDTH 1521
HEIGHT 1
VIEWPOINT 0 0 0 1 0 0 0
POINTS 1521
DATA ascii
-127.9174 -92.074959 -4.4781175
-143.84464 -80.550652 -4.4579244
-149.0202 -85.658897 -4.4763436
-166.65817 11.071496 -5.0764728
-153.87323 -80.915733 -4.6976647
-119.27874 -98.712906 -5.0480509
-165.905 17.302601 -4.9787183
-114.19434 -96.251625 -4.6886868
-109.562 80.993599 -4.9582386
-120.96133 -87.399216 -4.7288642
-120.20082 -96.776581 -4.2569332
-157.90179 -112.39982 -4.7773151
-170.13278 -110.55983 -4.4562964
-113.72654 -94.40416 -4.643939
-150.743 -94.733803 -4.869288
-122.37791 -97.309441 -4.6709695
-164.70409 111.42847 -4.889081
-117.54386 -101.23253 -4.5089383
-112.09415 86.601418 -4.412756
-110.001 78.115402 -4.8155985
-125.85 -86.627457 -4.2767482
-147.61067 -74.428207 -4.2306905
-166.9187 -112.15768 -3.976548
-96.605156 -17.43339 -4.5380917
-157.88354 -81.254875 -4.0322161
-96.620529 -11.541276 -4.4449501
-130.71114 -55.705864 -3.1440105
-153.799 117.034 -4.6246681
-99.520302 -41.323101 -4.6064792
-110.186 84.489799 -4.6017485
-115.11961 -90.073471 -4.1543469
-122.19192 -102.40775 -3.6827011
-112.06916 -92.45195 -4.0967207
-110.49271 96.956772 -2.6943462
-116.6239 77.674156 -4.3281546
-113.52563 89.715065 -3.1287992
-97.418259 -37.946144 -4.2558761
-95.768082 -6.2408748 -3.5647056
-94.028625 -28.846767 -3.1111813
-114.53019 -97.917511 -4.0841589
-117.36043 111.42901 -3.2402804
-183.57297 -80.265694 -3.6338158
-118.09769 -86.86731 -4.2235508
-117.29632 -96.988922 -3.8510742
-148.65334 -110.8112 -2.8617377
-114.36929 108.24888 -2.7370551
-117.60314 -91.784698 -3.6133177
-157.92615 -85.73288 -4.1417594
-112.83417 92.18885 -2.9277678
-112.00185 93.940826 -2.5551276
-114.09396 -88.265907 -2.6048448
-113.1749 75.322922 -4.105464
-109.29313 59.379368 -0.11997822
-154.58701 -88.850899 -4.2011881
-114.2455 -87.686081 -3.611511
-157.20267 -84.261093 -3.9801342
-145.69 -95.727798 -4.1728783
-159.789 114.022 -4.1457682
-98.122124 36.585018 -4.1743312
-96.28299 28.460764 -3.9924169
-157.59451 -87.182358 -3.8248749
-134.54442 -86.40892 -3.2389252
-95.782425 -36.986298 -2.9011226
-163.39981 -113.34019 -2.7012901
-112.98546 -96.345558 -2.9438112
-99.818146 43.355778 -3.9769695
-180.6031 -53.599483 -3.6187453
-95.422058 21.52857 -3.7252738
-154.99699 -83.8041 -3.9387481
-182.19385 -97.871971 -3.3183596
-174.42273 59.690941 -3.7246912
-171.84082 49.580402 -3.7902837
-123.69191 -93.844246 -3.18029
-101.43703 47.863197 -3.5564964
-175.981 63.873402 -3.802928
-115.17805 -90.821503 -2.7955406
-120.22102 -84.977097 -1.6731402
-182.23952 -64.99765 -3.2770019
-105.84312 -44.870804 -2.2382863
-138.08395 -65.337326 -4.0313349
-151.18451 -78.890434 -3.8700397
-183.99602 -89.773972 -3.5370433
-140.12109 -85.52356 -3.6255369
-121.7149 -50.364845 -3.3237669
-167.03336 112.46223 -3.3908019
-178.45284 74.342888 -0.53025651
-177.336 68.600998 -3.6046879
-95.739532 -24.745689 -2.482604
-132.97871 118.61671 -3.3779027
-177.49226 81.557533 -3.6668251
-136.77945 -95.284554 -3.1082463
-108.152 81.032898 -3.4812989
-156.08543 -81.173729 -3.0000522
-110.48759 75.963837 -2.9461572
-167.88782 32.060772 -3.1329761
-95.932983 7.9555011 -3.2730193
-108.511 78.2873 -3.4049788
-116.30345 74.819641 -3.3280582
-115.67531 -85.172684 -2.56668
-149.18594 -84.96701 -3.3806286
-108.73071 -45.518818 -3.2457209
-169.20398 111.36997 -2.8683078
-135.79663 -106.78702 -2.1694691
-153.01152 -80.546837 -2.7219555
-175.15453 94.192001 -2.1676385
-164.71072 113.42551 -2.3895295
-108.666 85.050903 -3.2133188
-114.38123 68.578125 -3.0871036
-93.694366 -32.190895 -2.1706557
-139.70349 119.18055 -2.7542381
-185.0584 -86.543121 -3.1020617
-115.54359 -86.699486 -2.5241759
-113.42493 -87.513306 -2.2855182
-155.69655 -83.205711 -2.5097196
-115.71826 -47.102936 -1.8866117
-163.37068 112.64407 -2.2305679
-114.4784 74.304497 -2.7329011
-184.51012 -93.370567 -2.7719519
-95.560684 -7.4049006 -1.7869744
-149.42685 -78.050407 -2.45961
-113.13139 -87.824707 -2.2384007
-111.25426 -92.575333 -2.2479432
-178.46524 -104.36486 -2.4538894
-125.2813 -85.880989 -1.9372935
-168.51376 -112.18256 -1.0775391
-111.538 103.874 -2.8987687
-155.32899 -89.864502 -2.8973582
-112.7029 64.865952 -2.4515893
-174.43616 -108.09396 -2.5881636
-146.19766 118.43542 -2.0983264
-152.21695 -78.548592 -1.9822973
-144.54817 -73.742828 -1.4370794
-167.34288 28.627728 0.28176638
-110.414 87.179901 -2.7390485
-134.49857 -82.971046 -2.4325037
-113.50806 -88.16375 -1.0391902
-140.0197 -82.052315 -3.0500746
-173.78105 -7.7862191 -2.6541827
-114.94457 -100.17409 -2.1113379
-120.37084 -83.213837 -2.3891814
-163.8495 118.67863 -2.0086358
-118.42912 -83.424889 -2.1108212
-170.54549 1.6392919 -2.7335701
-165.00439 119.67429 -1.97658
-127.85054 115.90343 -2.0658102
-181.53366 -49.175285 -2.5360487
-178.02878 -33.608315 -2.4907012
-128.45494 -85.609955 -1.283735
-175.33397 -14.709939 -2.3942959
-111.32117 70.244644 -2.2050433
-168.11253 7.3010182 -2.3727231
-183.5351 -62.387138 -2.3116431
-168.72911 114.4889 -1.4990119
-115.70864 -92.776253 -1.6020271
-98.215599 -17.333094 -1.5665044
-153.532 117.139 -2.3323281
-124.19862 -85.761299 -2.6046257
-175.9129 -21.106609 -2.1826167
-166.36449 23.468853 -0.24002521
-154.07935 -79.104485 -1.289885
-144.34781 -84.719551 -1.0758591
-114.23222 89.558929 -1.6390572
-98.61438 -38.971745 -2.0830884
-95.3517 -2.4100661 -1.5455178
-166.58469 17.797186 -0.18168323
-185.77428 -88.101173 -2.2131736
-167.18294 13.383365 0.084681958
-113.63904 -90.360992 0.27157301
-118.19644 -102.26262 -2.1008956
-182.08691 -99.836601 -2.0735309
-184.95087 -74.587326 -1.8731493
-139.87312 -108.05505 -1.2030861
-102.919 -43.5905 -1.9218688
-131.90022 -58.371555 -1.6887102
-158.54369 114.7602 -0.39856473
-100.567 -41.532299 -1.8973188
-110.69848 71.464844 -1.130304
-128.87971 -95.794075 -1.7556806
-137.30824 -65.937157 -0.5944435
-134.35593 117.9573 -1.7258534
-109.67654 66.464188 -1.2312479
-117.29998 -94.078903 -1.6623609
-151.26711 -79.224846 -1.109638
-162.73218 118.32864 -1.0030961
-169.51755 113.39661 -1.0254797
-166.31184 -113.25481 0.084573343
-153.74255 -77.930603 -1.3433503
-142.19981 -71.27681 -0.24078862
-114.75088 90.019173 -0.15267009
-161.89565 112.77895 0.032784011
-108.30937 78.172539 -0.091141358
-110.95167 75.158333 -1.071749
-108.11449 80.735168 -0.011785591
-135.12589 -85.993668 -1.4800928
-108.614 85.072899 -1.1701887
-145.7368 157.61775 -0.63004196
-121.09763 -49.211246 0.47296193
-147.64619 -78.440796 -0.68018079
-110.17351 87.006775 -0.37511706
-147.61057 -80.462776 -0.0080348197
-98.030678 -22.161852 0.0099831987
-119.98643 -84.53756 -0.20854349
-97.270607 -24.744108 0.066964529
-144.07188 157.37155 -0.55806577
-153.56001 116.34162 0.0086982213
-116.89715 -85.299889 -0.19593334
-131.44266 115.67438 -0.0091752522
-123.97684 112.42333 -0.014598852
-114.30386 92.750168 -0.044194777
-163.29834 115.38596 -0.28859296
-117.35679 107.83725 0.0017338095
-136.36441 117.08681 -0.041103732
-114.2679 103.21179 -0.0096803373
-100.43292 -39.542049 0.014664767
-141.0869 117.36426 -0.0098106768
-113.89166 -88.396309 2.4346421
-143.97803 -109.23392 2.4245679
-158.75656 134.08182 -0.24546827
-113.33217 94.986053 0.26432884
-115.00902 -85.841301 2.2648716
-113.52264 97.430855 0.0052317837
-95.023384 -29.359701 0.023826003
-114.79364 -86.809769 0.24100518
-147.22351 117.18337 0.022707736
-94.181679 -32.439232 -0.044937149
-110.97247 66.223778 -0.040980257
-149.4559 -111.23087 2.1669259
-106.49678 -44.066883 0.0011249799
-102.64915 -42.140575 0.027111923
-94.756126 -34.996342 -0.0080667706
-124.15636 -85.144814 0.076973371
-161.05527 -113.79333 0.021757031
-97.859642 -38.147137 -0.0082193827
-109.88856 -45.03442 0.069705769
-114.69408 -91.079056 0.062468588
-125.06223 -104.43464 0.73242718
-163.57736 -113.76938 0.75944173
-175.41663 -107.84866 0.069099307
-125.38248 -104.50742 -0.74366856
-180.65456 -102.56761 0.016271476
-117.83773 -102.09213 2.2404478
-115.87905 -100.80043 3.0071568
-113.88981 -98.947197 1.7104776
-184.36385 -96.017693 -0.026627403
-130.39354 -96.399391 0.0044946447
-138.91435 -95.81234 -0.11777375
-145.12399 -95.897697 1.7305863e-06
-118.16099 -94.879997 0.020536639
-150.088 -95.166397 1.7897814e-06
-115.54182 -93.389549 0.39302701
-186.08205 -89.785927 -0.0033076708
-156.19 -90.063599 1.8625472e-06
-113.42793 -87.707962 3.1640127
-159.03101 -87.819504 1.8964257e-06
-128.34859 -85.632484 1.1465935
-160.116 -85.397003 1.9093641e-06
-125.53264 -85.986031 2.0346265
-186.16719 -82.853996 -0.058520559
-122.72929 -84.81926 1.7819597
-149.34801 -84.316101 1.7809572e-06
-158.91901 -83.337196 1.8950902e-06
-155.59599 -82.605904 1.8554637e-06
-142.40791 -81.627769 0.15116769
-153.60114 -77.771835 0.97458094
-184.37755 -63.503941 0.015596859
-129.8793 -56.239418 0.39889002
-127.02546 -53.045757 0.058480386
-182.50415 -49.79348 0.0030628163
-177.36696 -26.958431 -0.018054504
-176.28699 -16.67462 0.063109502
-98.507645 -17.32168 0.53769398
-97.170967 -13.861976 -1.3358688
-95.565529 -7.7557259 1.4297054
-174.33955 -6.955986 -0.011451351
-171.35008 1.44841 0.078863345
-95.713158 7.3819895 -0.070880771
-168.33665 7.9479365 0.48231825
-95.036232 21.485456 0.047061421
-96.123138 29.652914 -0.1054678
-99.223663 41.863991 -0.16235104
-172.46875 51.248493 0.032182515
-174.74062 59.163094 -0.15192012
-112.31207 64.918663 0.69731909
-176.651 64.240402 2.1065421e-06
-109.27597 66.600517 0.73730081
-177.951 69.090797 2.1220444e-06
-177.82632 81.311493 -0.0037344894
-108.82339 85.098793 0.37572792
-171.14841 107.72442 -2.3897583
-170.98792 108.51295 2.019664
-164.61263 113.57172 2.1057994
-166.21796 120.1639 0.47979292
-143.96532 157.20107 0.29498196
-144.56494 157.86409 -0.97810966
-137.07225 -107.26605 1.9944831
-133.59906 -82.858978 -0.056613877
-162.29727 118.75367 0.40987083
-145.57991 158.13417 0.38952774
-113.48236 -87.369278 2.0324948
-135.17027 118.62752 2.5660157
-151.78801 -79.349586 1.1851825
-112.35942 -94.666481 0.0012951199
-111.18839 -92.426445 1.119913
-163.26776 118.40324 1.6438136
-168.62447 114.9691 1.3296673
-144.97691 157.36264 1.0448192
-154.4774 -79.355576 1.634621
-111.32178 74.548248 0.7854327
-119.65866 -84.985573 1.6936566
-116.95055 -85.783203 1.8615924
-110.13275 87.177383 2.1897955
-147.866 -78.344803 1.0807918
-115.50345 -91.46656 2.7199707
-114.04184 -88.214378 3.2249684
-124.34763 -85.768188 2.6448758
-97.120117 -13.681365 3.1172991
-172.51881 104.23901 2.4060173
-146.54539 118.65286 2.8537827
-142.33331 -70.984764 1.4902514
-118.17358 -47.539692 0.31145403
-164.91011 119.77029 1.9923588
-127.88622 -52.851177 3.8062348
-168.03256 -112.29785 2.0214038
-164.25081 118.77654 2.079812
-120.79156 -83.483856 2.3155131
-118.89323 -83.170799 2.2275612
-152.69453 -111.97887 3.3275642
-111.17663 69.783951 2.1746068
-139.45284 119.05573 2.5362535
-117.8886 -94.347404 1.627701
-114.10715 89.278915 1.8892443
-115.6993 -86.755775 2.9266458
-151.64117 -78.813995 3.2807949
-114.15566 74.460968 2.5941064
-174.33521 -108.15245 2.6781893
-112.85735 64.943871 2.5896163
-130.44528 -95.914116 1.6644496
-136.37305 -64.415092 1.934914
-110.99142 66.193573 1.8949846
-93.767731 -29.216892 3.5836742
-178.02663 -104.82662 2.4869652
-131.26091 117.81234 2.7664289
-96.233536 -37.4039 1.9696476
-93.6269 -32.183594 3.1734998
-105.832 -44.790699 1.8245713
-181.92267 -100.09735 2.1236157
-185.72417 -84.234093 2.0189953
-94.184982 -34.806004 3.0829637
-99.608284 -41.39452 3.8079293
-158.47 114.894 1.9170719
-102.59254 -44.090225 3.4748561
-98.720505 -39.048939 2.0202315
-134.78375 -82.933479 2.5127237
-168.18011 112.3595 3.141844
-112.41012 63.737949 4.8703918
-184.38879 -93.825722 2.7285151
-162.44612 -113.1718 3.0598416
-149.30379 -77.847748 2.5799046
-185.57661 -89.679588 2.1493571
-149.78241 -84.820335 3.1818664
-117.66214 111.41927 2.95103
-165.98296 17.620173 4.5610461
-142.14386 -85.153076 3.1526296
-111.16595 96.355492 2.2565854
-134.62727 -86.034172 2.0956409
-183.04713 -58.654884 2.3836393
-95.061905 -25.493959 3.1762195
-109.72974 99.225029 3.4600523
-164.18985 112.68886 3.1371813
-176.14182 -26.002504 2.3232551
-125.42668 114.97005 2.4001009
-175.58417 -17.128159 2.4441218
-153.532 117.139 2.3323319
-97.295509 -17.136913 3.4886911
-155.29395 -83.641434 3.6996796
-113.16883 -96.296318 3.1275756
-140.12086 -82.049545 2.8193736
-117.70351 -48.289597 3.581964
-174.22147 -9.1586876 2.5930841
-178.2907 -34.617771 2.4830391
-115.52444 -90.125595 4.2471251
-181.78665 -50.409828 2.5242524
-171.4801 -0.40366197 2.3545415
-152.91582 -80.495995 2.7298362
-114.30074 108.20565 2.6736152
-113.2218 92.129341 2.6580391
-166.55513 113.89866 2.9817736
-115.20555 71.211143 3.1646254
-95.921036 7.7216778 3.2205498
-111.66221 -92.485138 3.6496766
-122.61671 -102.50484 3.6317914
-175.09479 93.636276 5.1765013
-155.07297 -78.912643 2.7109449
-184.5071 -70.328247 1.9106801
-117.87363 -92.834999 3.0954957
-130.41341 -105.48803 1.7590973
-112.9022 -46.826553 4.5100746
-156.87039 -81.205177 3.2025285
-157.68019 -87.07885 3.7587154
-169.66133 -110.80544 4.4519205
-181.50583 -57.617046 3.2274444
-155.32899 -89.864502 2.897362
-110.41303 103.57685 3.8317573
-127.51959 -87.715652 5.0466094
-183.42963 -78.736343 3.6954165
-135.05254 -86.989983 4.3846436
-116.36549 75.25428 3.2823048
-110.49021 75.979111 2.9919965
-182.61635 -97.434761 3.073055
-113.1991 89.250694 3.8429053
-130.6021 -94.633492 3.1866946
-162.29112 112.88203 3.0752201
-106.89031 -45.198929 3.9039993
-157.07794 -84.19677 4.0003891
-114.37402 -87.551414 3.7112532
-184.92242 -86.461296 3.2246158
-169.82762 40.648708 3.6584268
-108.666 85.050903 3.2133212
-157.90942 -85.732353 4.1935096
-117.57874 -88.406616 4.6729693
-118.65415 -86.942497 4.3343816
-144.717 -80.462578 3.8993654
-118.52963 -90.659325 4.3790812
-168.92155 108.70273 4.9633579
-119.5274 -83.809639 3.4560935
-178.13881 -42.985703 3.9396832
-108.511 78.2873 3.4049811
-118.19772 -101.19937 4.8117175
-183.87944 -87.500351 3.7641866
-175.45145 -29.20207 3.8502154
-108.152 81.032898 3.4813013
-122.64906 -51.044895 4.7883425
-131.3082 -55.74931 3.9353218
-95.582382 -4.55234 3.219758
-138.94701 -95.272598 3.5311716
-177.30322 82.28447 5.0598955
-115.01316 -98.247787 4.3976102
-137.48106 -106.69026 3.2428572
-118.96386 -96.909988 4.1353045
-177.336 68.600998 3.6046922
-137.92685 -65.347412 3.8328722
-104.07343 52.291912 2.7355537
-95.434822 21.232399 3.8003175
-178.062 74.278099 3.6387322
-108.00191 56.716476 11.510617
-101.54421 48.025654 3.8399425
-124.40158 -93.717003 3.3371549
-126.11113 116.50839 4.0910435
-175.981 63.873402 3.8029323
-174.30768 59.369171 3.6943774
-154.62727 -78.433907 4.318562
-116.70181 -87.610779 4.8928394
-172.4585 52.653984 3.9586101
-124.99335 -91.676651 4.3665724
-174.69249 -24.142717 4.0055456
-111.84853 86.476868 4.3460374
-179.27274 -101.88355 4.1387887
-99.491058 42.283112 4.1476302
-182.63638 -92.677391 4.4776511
-134.48534 -83.910118 3.869462
-112.68223 75.629852 4.2731709
-94.478836 -35.119183 4.852972
-125.64478 -86.50441 4.1930981
-97.357407 -37.862164 4.3210406
-96.420731 29.37849 3.8976774
-134.82664 -87.927795 5.323946
-122.96857 -97.573517 4.7428541
-147.05116 -73.022156 4.8862028
-113.95407 -95.319824 4.8154984
-166.79146 -112.20052 4.0975685
-95.627831 -20.182802 4.6526146
-133.84323 -93.803276 4.5954595
-153.93025 -80.877335 4.6957369
-145.69 -95.727798 4.1728821
-123.15759 -86.465736 4.741519
-114.32076 85.185608 5.0911827
-154.58701 -88.850899 4.2011919
-96.448242 -9.7687407 4.800601
-109.287 95.092003 4.2879314
-173.91943 -19.882647 4.9423466
-130.19553 -91.011612 5.5721169
-181.45244 -69.804939 5.0175877
-147.29767 -85.560158 4.4605808
-173.57661 -107.88423 4.824235
-119.04436 113.05151 4.4869661
-130.69969 -86.212585 4.566031
-155.70712 -111.97372 5.5404072
-139.08156 -65.418304 5.148181
-116.5993 77.972832 4.4249663
-117.26633 -98.651283 5.1279883
-178.90858 -99.72506 5.2513533
-121.46142 -99.837067 5.2760444
-111.40172 83.920265 5.4588609
-182.82857 -87.637413 4.8417788
-139.40533 -82.471451 4.3713036
-153.91084 117.03753 5.806015
-116.16801 -88.333351 4.7621026
-157.31245 -81.922974 5.4738336
-118.10999 -97.472748 5.1894512
-159.65327 -82.201912 5.8928509
-148.06281 -109.67342 6.0250125
-118.18205 -88.774094 5.5903258
-114.14619 -90.034508 5.2001352
-95.974495 -17.647783 4.9357967
-166.26634 -113.21396 6.0366039
-127.27428 -87.849854 5.5179472
-110.001 78.115402 4.8156013
-181.37637 -64.399315 4.2749872
-130.47221 -103.1532 4.5105252
-166.43329 11.955549 5.3841329
-165.74092 110.03125 5.8187084
-150.743 -94.733803 4.8692918
-172.12831 -9.3153868 5.7146668
-179.34328 -55.833534 5.7512465
-119.36359 -99.045403 5.0850234
-164.28085 -112.28787 5.5061998
-139.81152 -105.17455 6.207603
-138.26958 -86.790573 5.3592796
-109.562 80.993599 4.9582415
-172.17203 102.1552 7.9858208
-115.79217 81.474052 5.2914367
-156.29869 -79.508507 5.3145695
-181.32361 -82.986496 5.4391384
-152.61334 -87.106361 5.298593
-126.6973 -99.38736 6.0632873
-116.9389 -93.456482 5.4642391
-177.63695 -45.304539 5.3676128
-124.53124 -89.656189 5.9597492
-136.96542 -85.841805 6.6718283
-121.82913 -87.350563 5.565629
-145.65732 -106.98631 7.5287161
-112.492 77.98069 5.6180387
-180.77032 -92.002647 5.5242453
-167.62801 5.8414302 5.270112
-170.75169 105.0975 7.1310816
-96.553177 -12.516356 5.4333339
-93.309921 -25.277662 6.5709338
-116.50435 -96.384079 6.0782199
-137.99001 -93.109001 5.3762612
-139.04088 120.21487 6.7351894
-177.52228 -101.1038 6.0601249
-96.662048 7.6406813 6.3839822
-180.49197 -87.747612 5.6015005
-131.93599 -55.236057 5.8044825
-168.95749 -111.89207 5.8188844
-161.4874 -111.76642 5.8778958
-165.59599 22.264799 5.546382
-148.11597 -78.637444 7.2256856
-118.13245 -98.116592 6.5100627
-138.68489 -84.644249 7.0148005
-134.29437 119.70237 6.5510182
-131.98921 -89.492661 5.948823
-117.29768 -89.961281 6.006732
-152.80374 -76.753975 5.9217358
-112.54 108.959 5.6524615
-114.91697 -46.601818 7.099791
-119.47592 -96.412079 5.6290035
-171.093 -3.3903501 5.6865921
-102.9265 -43.841522 6.1449227
-173.14116 -107.63875 5.6462331
-169.491 1.17092 5.7348719
-92.141388 -12.365218 6.1370378
-129.90334 118.79664 6.5786133
-124.73158 -96.001022 6.2821302
-111.565 80.790802 5.8036413
-156.81795 -80.96286 6.2674108
-126.84335 -89.833366 6.2533641
-178.84418 -71.210304 6.7939048
-166.31523 28.814764 6.6093588
-125.57047 -89.312042 6.4386325
-123.30973 116.66962 7.3924618
-137.77737 -61.486965 6.3205972
-138.37602 -90.646355 6.9172511
-170.24622 -110.55312 6.6325388
-176.90434 -49.799843 6.9971652
-172.82338 -31.404013 7.1207285
-142.48297 -65.065247 7.2087002
-92.223328 -16.852913 6.3291955
-137.79727 -101.82535 7.2775912
-96.428101 -10.1801 6.2179208
-153.89539 -78.598022 6.7564645
-122.82198 -92.356186 6.5164871
-179.41051 -92.48085 6.9490695
-108.12909 -44.785732 8.5214462
-179.24405 -63.521843 6.3971629
-132.47995 -88.014244 6.803853
-124.39211 -89.932404 6.7510757
-167.3502 -117.8827 7.2868581
-147.45184 -108.49972 7.6015263
-162.06035 111.7817 6.5738244
-114.72666 111.44365 6.7997117
-141.29556 -81.277588 6.7327204
-126.81241 -93.45504 6.7212086
-92.799736 -27.998384 7.9244208
-165.27193 -112.1348 7.6066003
-178.94302 -88.279869 7.3664355
-144.867 -92.831902 6.6112118
-156.51639 -79.415833 7.7609611
-169.08913 -116.30893 7.6419911
-95.764229 -34.735954 7.4704685
-97.134003 -3.67906 6.7780209
-176.33029 -79.309235 7.3211722
-99.89212 -41.654594 6.8470011
-131.56207 -55.102169 8.3018637
-168.71193 107.28528 6.9835472
-153.104 -110.79914 7.5451541
-160.40077 -83.289078 7.1260214
-147.35109 -68.18679 7.7028761
-144.739 -88.4478 6.9248619
-139.31183 -89.508965 7.0925608
-144.29601 -79.694702 6.9580021
-167.08559 -111.51757 6.9116807
-93.778633 -30.55044 8.0440702
-122.66576 -50.423531 7.8282189
-137.15202 -59.31316 7.744153
-107.86752 105.57135 7.4985232
-171.53413 -107.51305 7.3157821
-170.26671 -23.778351 8.3935318
-175.67319 -79.954376 8.1114521
-88.33432 -14.566829 7.5134211
-150.65601 -92.319603 7.0858717
-165.66057 -85.089844 8.5134716
-165.87596 -115.88331 7.1769338
-90.981041 -22.338346 7.9476433
-168.16095 37.567368 7.3593297
-154.74532 -75.096634 7.161994
-163.79665 -83.639267 8.2008171
-93.721413 -24.907206 7.2668447
-151.017 -89.672203 7.2203918
-171.1657 -12.579103 7.2091398
-133.95056 -92.669189 8.1567688
-131.54819 -98.697807 7.1986527
-91.862 -9.7501097 7.2520208
-117.15034 76.299637 7.6863494
-176.93399 -56.429646 7.3309889
-163.64575 -109.76221 7.8148546
-135.02896 -89.24324 8.1163874
-148.8819 -109.86446 7.6943588
-96.669342 20.929134 7.8500957
-166.3932 -119.28494 7.9751282
-106.622 94.023499 7.4556513
-160.18034 -109.59125 7.9383583
-132.88451 -96.717606 8.0246534
-165.80705 -111.58601 8.0425978
-96.915604 -8.0474501 7.5883012
-174.11351 -68.268974 9.0060768
-88.032104 -10.732354 8.2593393
-146.40227 119.26867 7.8658419
-175.13116 -98.654442 7.9741869
-116.12373 78.379944 7.5090714
-115.2356 69.775467 7.960835
-171.17784 51.50388 7.8867297
-107.28322 91.68383 8.6364155
-143.00302 -63.942104 7.9020886
-170.43022 -109.84232 8.2546415
-170.1895 -114.95535 9.0936203
-167.20953 -110.36768 8.135746
-148.15265 -105.81634 7.468946
-140.44086 -82.309845 8.3694019
-172.96884 59.16048 7.7815232
-113.81847 83.503242 6.9164729
-177.063 80.744003 7.988102
-104.22089 51.813297 7.9804378
-103.89713 98.195496 7.9451847
-170.56876 -34.833019 9.1946392
-155.57176 -109.23584 9.6684437
-139.13284 -99.472778 8.5616407
-145.27686 -102.8029 9.6026011
-176.03999 67.623398 8.1116323
-175.75464 -83.262001 8.6569719
-174.45399 63.087299 8.134572
-138.30734 -86.91069 8.7358847
-97.964737 2.0096226 9.0465183
-102.16399 48.040077 8.2956152
-167.72101 -118.16142 8.9507551
-177.308 73.349998 8.208952
-112.02706 111.10806 9.3865347
-176.76114 -92.257835 8.4966297
-169.923 -5.63661 8.2403316
-116.15591 -47.150009 9.0755959
-171.86078 -72.589172 9.3633127
-87.223106 -14.719211 8.483778
-97.569336 29.116964 8.3313236
-3.2569261 -25.065176 8.2619848
-116.55052 115.29655 11.760274
-100.03046 41.19434 8.7989416
-159.1794 -76.112099 9.1724443
-137.711 -96.056976 9.0933638
-153.91701 -72.422203 8.4530621
-169.41086 -109.00314 9.8690176
-147.9424 -106.89842 9.0477285
-163.24422 -80.703827 9.372611
-161.73598 -107.07635 8.8594284
-3.0723686 -29.904402 8.6699438
-102.36167 95.46196 9.5378962
-169.26881 -14.476676 9.1478567
-170.7583 -44.290756 9.7444067
-163.87148 109.1729 10.19829
-148.91245 -107.01752 11.09944
-103.67397 100.95175 8.4855471
-151.79268 -110.10704 10.107133
-147.47026 -105.41813 8.8979197
-144.53259 -79.68074 8.5909281
-164.39984 7.9815326 11.285535
-104.59397 -43.140663 10.131181
-164.64368 21.751339 8.8100023
-92.160538 -8.1084442 8.6473017
-166.18488 -85.699142 9.4045992
-86.575882 -12.593283 8.7156754
-81.891075 -14.9547 8.8629723
-168.42101 -1.11971 8.7555618
-2.371819 -21.567785 8.9914522
-93.424767 -27.367292 8.7939854
-149.63354 -78.697166 8.9007435
-175.76196 -87.847916 9.1283655
-171.54082 -98.68573 9.4694481
-5.8422976 -27.192411 8.9955425
-158.38011 -106.56765 9.7694912
-167.72961 -121.4892 10.216331
-150.37164 -103.37858 10.354461
-81.059189 -13.330608 9.0092506
-125.93971 -51.626175 8.8867588
-98.876129 -4.4499469 9.7179461
-161.6537 -83.852531 10.297275
-165.45399 -108.7365 8.9101458
-138.80815 -89.207695 9.8028889
-6.7846799 -17.407343 10.282545
-156.43221 -79.853226 9.290719
-174.395 -63.766602 9.0913315
-3.2300804 -28.236858 9.3146219
-125.33371 118.04714 10.617238
-166.6916 -123.6748 10.671036
-85.000534 -16.863125 9.3610353
-149.29179 -108.5092 10.170462
-143.02893 -98.032021 10.645467
-168.39355 -86.100311 9.790967
-165.52013 -108.00201 9.446229
-165.81253 -89.275421 9.5678711
-85.684929 -11.004854 9.6752462
-141.58022 -81.479561 9.3985796
-8.1823025 -21.046144 9.7237434
-100.93758 98.854591 9.7932749
-150.93825 -107.31713 10.697863
-149.14101 -68.300301 9.3917418
-96.341904 -33.235306 11.96332
-166.52022 -110.41203 9.6084404
-100.84505 -40.468929 9.8813667
-88.885429 -24.908627 9.9318409
-171.36649 -74.632439 9.7936726
-2.2569928 -21.553583 9.7900982
-91.056442 -26.474974 9.730566
-3.1804161 -22.211422 9.901597
-174.19742 -91.217674 9.6831207
-9.319766 -23.936367 10.000635
-9.1175165 -20.622066 9.4370842
-168.23524 -105.14154 9.2417355
-85.238686 -19.93177 9.781249
-165.61269 -104.76096 9.5732746
-98.237152 -6.9135594 9.8921566
-86.970749 -23.935249 10.436181
-170.02647 -114.38392 10.687171
-145.328 -64.656403 9.6416817
-87.061264 -8.4388542 10.635174
-169.0331 -102.25299 9.3662615
-173.78906 -84.129501 9.7169142
-150.46719 -109.18784 10.531461
-131.94722 -54.585976 9.9175262
-140.18605 -61.071556 9.8626833
-153.3922 116.59613 11.033719
-134.05647 119.90491 10.436212
-156.26694 -72.010147 9.8918228
-162.38039 -105.81624 10.120625
-129.68568 119.08252 10.649725
-165.005 26.8239 9.8145123
-148.621 -79.613503 10.01405
-11.805006 -20.788136 10.130186
-65.540062 -16.50214 11.288853
-7.106895 -16.431538 10.156211
-172.34877 -87.839104 9.9544687
-9.1025629 -16.428988 10.428633
-11.73558 -24.830843 10.652474
-141.37378 -83.014946 10.168781
-169.87402 -97.022614 10.067364
-170.19171 -77.716164 10.022369
-98.983498 10.685666 11.105893
-120.16724 117.11898 12.244136
-103.04929 104.12418 10.576838
-138.87534 120.16393 10.982128
-165.67024 -94.605515 10.185667
-166.994 -108.20304 10.169519
-148.09221 -100.97921 10.953357
-163.66858 -76.652046 10.161584
-148.55066 -102.23662 11.160141
-75.570435 -20.034594 10.500182
-140.71638 -93.141594 10.528154
-55.38517 -16.73344 10.051614
-168.67032 -54.978333 11.430045
-169.96338 -88.265152 10.220094
-107.57825 88.154114 10.157402
-72.919052 -17.645342 10.548707
-170.20393 -83.126007 10.168468
-162.83952 -102.88255 10.73387
-2.8766904 -33.435684 12.606941
-109.24567 -44.569984 10.504005
-93.543503 -29.786301 10.207601
-164.74074 -99.112885 10.511581
-71.610306 -11.364992 11.165764
-163.3282 -43.536068 13.780351
-165.53799 3.21381 10.285702
-55.763317 -19.164858 10.227709
-3.4248326 -32.013275 11.399218
-168.228 -8.3317699 10.337102
-157.27451 -82.604706 10.863686
-162.39195 -87.541138 11.314801
-157.24596 -106.10751 11.073291
-60.625729 -17.234112 10.325721
-164.94992 -74.199432 10.568967
-146.36958 -63.295246 11.01718
-168.04311 -118.77308 11.062234
-3.532841 -31.86157 9.9675446
-149.78134 -107.76485 11.658033
-166.30991 -24.796532 11.302394
-58.625244 -18.359116 10.494126
-169.21201 -112.75393 11.774014
-167.77039 -70.290916 10.774412
-91.609787 -7.233561 10.621786
-82.237747 -23.103384 10.836694
-140.80672 -89.74424 10.904784
-166.96021 106.2918 12.70236
-2.3563516 -18.109097 10.583971
-60.073856 -20.577641 10.803863
-165.74957 33.442863 10.784652
-167.57796 -123.16407 11.900565
-159.37747 -102.56499 10.723306
-114.31973 78.802933 10.721255
-10.05274 -25.792921 11.180367
-142.57358 -85.669037 10.927001
-50.989944 -18.200186 11.004201
-165.39757 -113.49992 13.010463
-65.419098 -13.887793 11.380952
-84.602791 -9.8992462 10.933529
-148.99826 -82.644279 11.121576
-11.871849 -16.756195 11.495008
-164.09875 14.176274 10.835884
-3.7426083 -29.057486 15.014823
-98.586555 100.73804 11.164799
-165.36642 -70.41687 10.94234
-1.9203663 -18.981037 11.410412
-137.53244 -57.92284 10.891753
-60.337814 -14.551085 10.688089
-153.01996 -104.11391 11.288466
-50.642799 -15.3631 10.920201
-96.898476 98.30069 11.757477
-125.14307 -49.562363 12.901526
-116.82056 74.517807 11.539776
-128.56499 -50.976711 11.91096
-156.79953 -104.72067 11.607765
-165.83006 -38.132053 11.818778
-167.96077 -121.06865 12.247114
-56.965111 -13.130039 10.974606
-121.026 -49.195 11.018502
-148.50597 -63.041611 11.489189
-154.34312 -102.47363 11.686996
-166.07922 -66.532455 10.990693
-53.718433 -11.691366 11.300764
-153.7563 -107.99025 11.992595
-161.355 -94.461258 11.377281
-166.81149 -115.28826 11.926986
-89.381416 -28.870098 12.350927
-165.44571 -113.66929 12.414032
-173.84146 94.006599 13.006786
-130.85046 -51.99651 11.718887
-23.876644 -14.565041 11.170262
-64.865128 -20.224249 11.664642
-164.64369 -31.159105 12.22751
-164.40265 -47.450764 13.040704
-95.036522 -30.766903 13.185281
-166.711 -4.4337401 11.181802
-20.848759 -16.214275 11.270354
-164.64568 -22.457197 12.653123
-57.944828 -21.303034 11.929449
-3.1169469 -19.89456 11.21034
-100.66148 94.13488 11.245022
-166.59195 -112.87782 12.861313
-68.570206 -20.482845 11.517694
-116.39331 -47.665649 11.349528
-22.55448 -12.189268 11.450395
-24.627298 -17.444834 11.590249
-168.53528 -57.288696 11.652619
-92.036285 -28.624823 11.465268
-19.243767 -13.508971 11.475918
-134.38509 -53.909569 11.664525
-152.90466 -100.26653 11.832149
-114.19226 66.58606 15.151368
-105.72652 108.76891 12.080193
-15.247482 -19.820797 11.725904
-170.42601 58.505432 12.465909
-148.83577 -88.773628 11.953546
-149.3989 -103.13234 11.482023
-167.01801 42.48851 11.526754
-105.73746 -42.410316 11.900973
-152.66579 -103.77677 12.176446
-83.906128 -25.408823 11.733897
-5.9927092 -14.300534 11.921753
-74.150269 -23.22139 11.955008
-148.87915 -93.818771 11.937957
-96.499725 96.342232 11.689338
-98.798279 104.59087 12.189239
-156.84941 -87.306145 11.95661
-17.924097 -18.298161 11.997437
-168.36238 -116.7067 12.954907
-111.92896 62.473347 12.420601
-54.38414 -9.6154594 12.380116
-167.66988 -126.59695 12.425289
-55.437389 -9.1103973 12.394456
-58.435379 -9.5277815 12.500737
-100.62092 3.3510244 12.627079
-112.441 113.22 11.774101
-155.96129 -92.211662 12.164024
-102.057 -39.788799 11.805801
-138.56267 -56.445351 11.780887
-66.860954 -9.2185011 13.06562
-27.531481 -15.900791 12.100588
-46.030525 -14.857674 12.194989
-102.0662 105.75333 12.090068
-84.458565 -8.9169464 12.508205
-17.731798 -14.908239 12.435911
-99.093437 21.509949 12.729748
-63.396385 -10.574651 12.156095
-15.089499 -23.276825 12.638576
-21.565094 -18.03916 12.044364
-7.4136362 -14.049781 12.490684
-46.738598 -17.85191 12.379264
-164.59425 -57.509392 12.849121
-154.8649 -62.443455 12.435767
-8.3041782 113.59826 12.038827
-15.190413 -16.193161 12.549397
-151.44705 -106.71214 12.362436
-154.09421 -104.39596 12.354676
-164.95253 -12.738726 13.151372
-150.76703 -105.74841 12.677977
-102.75549 -5.6862717 15.063231
-165.11111 -62.516602 11.743387
-10.863163 -27.211378 13.622004
-145.97758 118.77085 12.309733
-3.3131778 111.32919 12.481882
-159.78409 -61.93272 12.296839
-152.02998 -107.88812 12.014038
-11.376662 111.93239 12.355709
-27.687777 -17.430712 12.411477
-13.861455 -26.065138 13.644338
-41.603809 -16.586666 12.461411
-18.09444 -11.647243 12.227545
-9.7789392 -15.179102 12.715883
-8.7333508 110.06336 12.498746
-17.931616 -20.559631 12.689585
-134.28214 119.47868 12.764007
-107.53119 85.067581 13.02546
-12.217826 114.82533 12.763435
-99.614128 -6.4493685 12.26398
-2.8811727 -20.093489 12.153758
-153.08249 -58.22414 13.498491
-25.225958 -11.512089 13.242353
-91.672386 98.603645 12.601741
-164.21794 -18.906134 13.239163
-59.903236 -22.225462 12.74943
-105.1642 52.018028 12.59347
-38.663338 -14.632604 12.650407
-3.5721323 -34.167637 14.041206
-98.780319 -35.026775 12.758888
-35.753326 -17.964048 12.883171
-30.092358 -14.744543 12.541817
-94.328445 95.07679 12.585542
-20.293089 -10.068411 12.801412
-64.963951 -22.713215 13.399396
-82.975784 -26.348021 12.866203
-4.1585197 -15.545473 12.981903
-48.334435 -10.004751 13.684614
-71.358986 -24.454802 13.502866
-55.456188 -20.614183 11.310841
-12.742334 -15.623065 13.331384
-54.654491 -21.899124 14.109924
-103.02869 89.405785 13.324724
-13.243139 109.00381 13.250497
-5.0613484 111.77701 13.063708
-98.240189 92.822044 13.497202
-103.35362 -38.350815 13.758395
-99.454346 105.61076 13.045137
-88.141998 -7.2208948 13.013818
-103.3754 47.743839 13.064714
-166.04407 -119.98457 13.646069
-84.709488 -8.5323086 14.675046
-99.658401 29.678907 12.937437
-29.580065 -18.895409 13.756794
-39.963348 -19.191803 13.876604
-5.5514526 -14.213115 13.047175
-10.262527 106.39227 14.128821
-106.70796 -43.11079 14.606676
-85.716179 99.491333 13.602939
-14.213702 108.46212 13.004561
-11.285524 114.98213 13.392508
-46.51899 -19.743031 13.946863
-10.911781 113.85465 13.517257
-20.313684 -19.781292 13.338235
-25.866165 -19.1507 13.28154
-110.161 -45.476898 13.221201
-163.01236 -4.3743205 14.925088
-101.86285 42.680946 13.278126
-29.966602 -12.162348 13.766318
-174.90881 89.173653 13.612158
-101.0053 38.202896 13.317056
-160.87497 6.7822571 16.659286
-90.872108 104.68823 14.420421
-162.95 21.5564 13.306802
-50.793449 -20.659412 14.222291
-43.895355 -10.514531 13.951875
-146.21686 -53.660583 14.607835
-17.108126 112.28623 13.685403
-139.18587 118.81602 15.82128
-163.72484 0.022146391 13.543733
-171.70799 61.884201 13.437901
-83.116737 103.31301 13.979893
-18.063334 -10.006983 13.47671
-97.662666 -31.32509 15.433351
-103.60714 108.96041 13.704892
-161.45311 -36.955444 14.404311
-151.86008 -51.842735 15.470154
-16.685255 -11.855663 13.622931
-125.249 118.527 13.556302
-75.386139 -8.0514355 14.423293
-159.01936 111.43649 15.453893
-152.88062 115.71337 15.486363
-15.176725 -14.752907 14.744699
-153.68501 -49.416149 15.97538
-91.964493 -30.266279 14.53455
-94.997581 92.025795 14.348721
-37.876614 -11.883225 13.911552
-61.725235 -23.113625 15.246568
-25.560064 -9.6259832 13.887117
-94.035263 -30.049351 13.839457
-10.782109 105.45261 13.9964
-90.952385 94.339111 13.906024
-110.71924 113.69674 13.845331
-16.412151 -13.554777 14.508523
-176.061 79.849998 13.867102
-20.922537 -8.5379009 14.080091
-98.969048 17.474205 12.248538
-87.564781 103.22188 14.675576
-114.56075 75.909256 13.647225
-139.07755 -51.26918 14.139674
0.0076370966 110.40796 16.465288
-50.924702 -9.2121239 15.070978
-55.897812 -8.2544527 14.094426
-66.998184 -8.4280128 13.998796
-101.15965 9.007822 13.962379
-11.09462 -27.315817 15.122253
-16.390581 112.2078 13.855353
-136.13745 -49.409203 14.986853
-1.493409 110.33308 15.237914
-14.963877 115.82864 14.047016
-117.39907 -47.738991 14.579072
-5.2600417 -14.798211 14.73395
-163.10201 26.6124 14.194402
-92.953003 107.17426 14.703573
-27.367067 100.48833 14.13278
-37.054913 -9.3123693 14.522079
-1.0987426 110.13065 14.496698
-65.966042 111.83513 14.271476
-175.72301 71.988197 14.290202
-129.50818 -48.253231 15.639663
-18.558971 110.79393 14.910561
-89.304184 -29.651539 14.556571
-174.065 65.978699 14.318202
-159.42569 -49.712448 14.778942
-73.869629 108.83694 14.617399
-129.938 119.24 14.412202
-17.327559 -9.8624163 14.912478
-16.416403 107.41972 14.340479
-4.7761965 111.09435 18.800093
-16.939184 -23.401834 15.132674
-115.92992 70.938271 17.526134
-116.679 116.227 14.477501
-25.349258 98.554222 14.51859
-80.780632 -27.015162 15.366151
-29.911127 97.935616 14.803393
-20.090462 -20.834421 15.293101
-60.962254 110.59571 14.708107
-41.656967 -9.4483366 14.849455
-8.7295504 105.05857 15.988125
-25.252588 102.55874 14.799669
-23.61433 101.15258 14.876916
-21.892237 -20.675222 15.404476
-166.448 50.324402 14.593502
-88.833633 -7.2057691 15.302799
-23.740017 -19.816317 14.669593
-12.932236 -15.390392 15.293067
-18.667179 -8.0642433 15.87421
-157.52077 -31.129236 16.560478
-13.78618 116.22678 14.963298
-71.193527 107.17267 15.691159
-67.777031 111.12672 15.017792
-168.93163 101.69953 17.814756
-94.277969 108.14734 15.656193
-60.469666 108.56256 14.868019
-124.62653 -47.680027 15.955843
-23.428604 -7.818131 14.852844
-14.8506 103.69016 15.741828
-67.351997 109.9573 15.219324
-163.08754 33.538593 15.063185
-100.24834 109.38519 15.5273
-70.231316 109.51677 15.009521
-16.615049 -12.336774 15.533573
-78.360107 108.59116 15.063549
-115.74638 69.988945 14.876044
-88.491646 93.94635 15.462733
-29.176729 -19.211439 15.576524
-18.701958 114.44158 15.225859
-4.3856316 -16.791084 15.317284
-17.787317 104.10894 15.594561
-120.927 117.593 15.039802
-54.197224 -21.625669 16.369705
-43.895126 -19.662312 15.508883
-72.067589 110.96552 15.21116
-3.2283061 -17.970495 13.330259
-103.88532 -4.0779195 15.41546
-3.2634115 -33.483082 17.699665
-83.808784 105.5192 15.40325
-102.41999 -35.504826 15.428832
-71.215759 116.45749 15.645829
-12.32638 -27.285837 16.258972
-19.110518 106.62693 15.700705
-154.82997 -33.625832 17.618692
-164.46837 44.65102 15.338689
-171.53531 98.812462 15.992044
-161.03389 2.112601 16.570141
-134.58701 119.264 15.269302
-24.5849 96.962021 15.327928
-67.076157 118.05814 15.769904
-31.701801 -7.8575168 15.140584
-69.694084 115.39887 15.557105
-33.790222 99.798622 16.105843
-28.389093 96.253616 15.316963
-57.067352 109.8183 15.860315
-167.37 54.4324 15.380902
-60.638702 -8.2980442 15.411535
-10.402184 113.47622 15.999462
-70.853378 -25.124111 15.980485
-101.288 -6.5149202 15.465301
-15.724593 -9.4738073 15.953451
-19.471647 112.51373 15.789736
-21.52951 98.989403 15.923703
-25.838961 104.53246 15.559965
-86.045441 109.89691 16.193991
-96.321243 109.33117 15.93017
-20.835384 104.62347 15.962337
-148.92946 -53.590694 14.87027
-56.029697 -8.0917139 15.534549
-22.450321 -7.4616818 15.875449
-108.98624 113.44776 17.04615
-99.480049 89.620728 16.173895
-56.37075 108.34326 16.146141
-15.669475 115.76095 15.433483
-59.252998 -22.564629 17.033718
-97.141251 -30.488642 16.888462
-28.678497 104.04845 16.794926
-104.6105 -37.826954 16.36677
-156.28687 -30.219128 17.871178
-15.415842 -11.316851 16.603621
-159.36197 109.8312 18.496653
-2.8379743 -17.889261 19.58522
-13.385561 102.54826 16.653687
-161.05724 -2.8953619 16.588549
-125.402 118.351 15.889602
-32.361755 102.01779 16.007296
-8.8156462 104.13036 16.317074
-40.288254 -9.525938 16.281139
-24.124731 104.81189 16.179256
-73.084404 -8.6056538 16.111029
-109.30694 57.350452 16.661091
-112.011 -45.786598 15.964001
-78.363701 110.53435 16.22485
-13.808926 115.12839 15.542653
-69.628761 119.49225 16.568678
-143.91338 -48.045128 17.046831
-92.254959 90.642197 16.64185
-23.472343 -19.831604 16.600452
-10.145301 -15.380797 17.762459
-94.678246 110.34183 16.697689
-3.2432508 -25.748816 16.550047
-160.15097 -11.664818 17.586124
-51.848961 -20.389721 16.88372
-115.34361 115.80596 16.555021
-10.905204 -27.110741 17.548904
-67.663124 108.33453 16.821918
-30.957844 103.46873 16.39072
-14.425279 -25.778952 17.286627
-30.369255 -7.8561196 16.253807
-155.62598 -40.592422 16.675606
-44.103718 106.57492 16.460924
-64.50795 118.3998 16.813934
-75.552864 114.36004 16.48875
-88.805527 -29.654167 16.384748
-106.50527 111.91678 15.596826
-118.84906 -46.745155 17.07193
-56.712105 106.3128 17.602047
-166.14018 57.318771 17.816313
-59.349937 112.87842 16.271818
-49.318508 -9.9570999 16.530834
-48.748344 106.68626 16.485222
-152.21625 -27.66293 21.068893
-131.00764 -46.743279 17.332287
-24.986855 95.332977 16.513456
-40.134289 102.00628 16.638277
-19.850317 109.28106 17.261215
-94.705849 89.13839 17.457355
-72.421104 120.58017 17.007557
-145.814 117.644 16.497202
-18.282043 114.72288 16.630604
-3.7602675 -26.95628 16.509361
-18.913904 -8.4319143 16.696735
-35.114178 97.604317 16.923941
-56.408428 -8.7567091 16.739399
-47.080891 -19.235498 17.23962
-30.2115 94.904549 16.580185
-64.523094 -9.3566895 17.146015
-51.726353 106.13379 16.917963
-38.114155 106.92029 16.933178
-7.076952 112.4621 18.151377
-108.2467 81.121376 17.432945
-159.6676 -18.267879 17.370121
-49.907188 109.94116 16.86438
-25.824944 -8.451189 17.212711
-130.093 118.737 16.777702
-64.316231 -23.222961 17.378738
-75.357651 117.25769 17.113266
-106.68966 52.100052 17.027622
-21.592133 -8.1438704 17.448473
-114.21718 73.307411 18.598511
-27.157051 107.14187 18.346149
-10.257605 102.10016 17.903841
-148.98592 -41.52602 18.517836
-21.203659 106.35213 17.644312
-102.50504 -32.683544 17.411261
-166.06813 104.6209 17.609819
-16.885162 -10.762935 17.385536
-101.89622 25.076662 17.098171
-69.374832 122.46122 17.469328
-7.9946113 104.62752 18.253216
-84.707649 111.77513 17.129532
-23.220732 105.50084 17.522331
-97.272278 110.492 17.674448
-34.121353 -11.410559 17.162991
-20.488161 -19.541939 17.78108
-61.038166 107.19899 16.088358
-92.710716 -30.319763 17.390244
-122.68022 117.43652 17.405212
-76.921471 115.25504 17.381907
-109.11402 -43.028584 17.582558
-30.438974 -18.022127 17.366953
-16.917137 -22.542774 17.850039
-102.49808 15.944703 17.190277
-15.419716 -16.288568 18.238407
-39.46209 100.11877 17.282616
-17.062134 -13.85928 17.523874
-12.743247 -16.368786 18.392382
-103.77128 8.449378 17.204742
-78.093193 -10.531639 18.727112
-139.57327 -44.341984 18.453484
-6.0110331 -14.653741 17.43166
-12.205588 -26.516594 18.662315
-57.88868 115.98463 17.868536
-87.800941 92.814667 17.375557
-102.44032 32.364655 17.379662
-46.957832 112.64264 18.901348
-85.52713 113.95965 17.768795
-164.47217 51.648979 16.906271
-27.969435 -10.894324 17.69372
-105.40986 2.0666325 17.378716
-78.976051 116.55607 17.789343
-32.784275 94.983444 17.825037
-105.32169 82.541351 19.468441
-3.6142108 -33.992867 18.082016
-105.039 47.24234 17.574911
-25.783497 -18.521254 18.147196
-102.81035 111.02451 18.030106
-162.08398 45.52401 17.787672
-8.5307856 -14.696515 18.505835
-103.78198 41.745098 17.960651
-106.72642 -39.2897 17.76408
-135.96378 118.30782 17.722366
-41.665562 109.52241 18.006916
-64.410637 121.13551 18.005316
-161.07851 36.126331 17.749502
-13.682333 115.11913 22.36668
-61.660259 -22.011778 18.187578
-2.8759561 -19.388769 18.782082
-67.480621 107.43874 18.244619
-34.257053 106.29688 18.076769
-159.93915 20.440441 18.155039
-17.330931 -10.8723 18.712851
-60.434139 -8.9738178 17.382505
-90.985321 -7.916091 17.698288
-172.681 94.283897 17.732903
-106.55806 -4.905479 17.803719
-36.202904 -16.607866 18.334732
-71.982498 122.25707 18.015757
-8.405776 103.60963 19.848904
-17.362574 114.20342 18.685921
-20.938187 97.204948 18.553465
-13.90637 100.94333 17.985468
-27.708277 94.07869 17.915457
-25.150928 94.317604 18.801367
-98.666321 88.599228 18.158672
-24.464916 -11.252112 18.55394
-38.556347 98.855499 18.073128
-81.238449 -26.94706 18.234774
-57.691078 -20.470888 19.613281
-47.7939 -18.377815 18.166269
-150.89592 -36.862415 18.817366
-25.38966 107.10262 18.504047
-104.75433 -6.6177745 17.81646
-114.24849 -45.080704 18.452496
-152.522 114.905 18.244602
-159.967 26.838499 18.249203
-89.725433 -29.454538 18.849642
-28.767422 -16.50827 18.339506
-173.34532 89.256783 18.717602
-85.273064 -9.3801956 17.584282
-85.561996 114.96268 18.831783
-18.278816 -15.529405 18.54887
-46.474083 -17.021992 18.58506
-106.34043 -33.530544 20.026762
-34.865055 -13.449151 18.309116
-30.648533 105.88752 19.013979
-156.63901 -24.452999 18.488401
-63.058479 106.68638 18.587242
-20.336218 -10.128434 19.042147
-46.348495 -13.65443 18.553268
-17.017731 -19.878904 18.740799
-27.914085 -14.665334 18.679829
-77.557541 118.25382 18.631563
-14.888948 115.17363 18.520624
-61.422623 -10.810357 18.80262
-96.871307 111.25992 19.551897
-66.220703 -21.948013 19.12361
-46.303215 -15.587974 18.814589
-65.012215 -12.195183 19.076586
-146.10101 115.95192 19.617378
-38.045216 98.295456 19.037472
-20.51828 -17.592085 19.022495
-113.81674 114.1788 19.807049
-3.2747808 -30.817699 21.368305
-101.43595 110.42769 20.180855
-14.043857 -24.064745 19.308882
-53.595314 105.31378 18.6409
-54.694496 115.81902 19.203377
-130.17351 117.36851 19.336372
-58.05035 -12.34339 19.693266
0.49129605 109.4761 17.938128
-18.415043 -12.058053 19.6171
-26.972263 108.33931 19.301846
-124.00687 116.61517 19.345797
-115.74798 67.946983 18.776997
-7.6569419 112.68554 20.21957
-75.138405 101.28189 19.197159
-68.548485 123.43407 19.122768
-28.948549 105.9154 19.797338
-71.689613 122.81628 19.15657
-25.56319 -15.550898 19.489052
-65.200096 122.47027 19.542843
-6.7013474 -15.097555 18.891523
-167.091 60.534 19.106703
-146.48058 -39.1968 19.857613
-1.8766003 -19.512669 19.77569
-174.02 79.493797 19.212202
-21.30578 106.13082 19.817419
-3.1144369 -23.675779 22.018917
-35.910961 107.67807 19.671694
-25.781553 107.86295 19.78652
-79.738152 -12.488678 20.285679
-143.078 -42.684036 19.221107
-54.181263 -12.746154 19.960058
-14.416993 100.34177 19.457417
-23.286631 105.62791 19.764162
-107.01638 -29.291611 21.946278
-19.890738 108.96181 19.442175
-93.860207 -29.743883 19.461258
-89.269318 90.622276 19.437817
-16.165522 114.48782 18.73304
-139.24023 -42.066559 20.329067
-29.32831 94.213173 20.111382
-24.360367 105.67495 21.035988
-15.64859 115.5234 21.857262
-103.23685 84.016396 21.306816
-81.020485 -26.041739 20.000641
-104.00639 -28.970268 20.869379
-52.459648 -14.500164 20.57193
-94.9356 88.008904 19.454203
-18.453766 113.92004 20.764542
-46.310516 101.66412 19.683413
-156.78224 -5.8482213 19.339207
-110.52031 57.551052 19.889078
-134.92679 117.031 19.599392
-157.3452 0.93755639 19.53289
-32.454823 95.411797 20.291853
-62.038643 -19.596556 19.933174
-23.611023 -16.246975 19.98937
-22.32341 -12.503735 20.070522
-152.47224 -17.146746 23.021421
-94.070511 -8.9490757 19.959793
-37.992714 98.671448 19.933952
-55.971313 116.64831 20.047668
-104.44506 16.048117 19.551355
-104.56176 110.36789 21.309996
-65.845169 -14.48373 19.769299
-84.458542 115.65543 19.871975
-155.44118 -22.156 20.232475
-10.345365 102.19097 21.253658
-12.05569 -23.638988 20.776081
-106.32072 8.3845348 19.863298
-0.16300593 110.07114 21.609131
-101.10691 -28.818998 20.175547
-66.338493 -17.166094 19.931631
-104.33208 29.532444 20.154278
-173.172 71.411003 19.884302
-157.464 8.4626083 19.857258
-61.772274 -14.090042 20.272947
-6.0286469 105.8966 20.460875
-52.22543 -16.758392 20.715313
-156.17799 -10.7985 19.951002
-87.140251 -11.213795 20.313612
-47.282116 112.90387 20.338148
-98.241692 86.391861 21.288111
-64.838333 -17.988771 20.09396
-19.957443 -14.13194 19.986889
-56.719513 106.23663 20.033499
-10.180793 -25.038071 20.651974
-108.45463 1.6896716 20.011843
-87.701889 -28.014326 20.534822
-116.55825 69.794357 20.501534
-10.109442 -17.499149 20.426298
-3.3955221 -32.909592 20.78446
-27.163692 107.17106 20.480297
-80.393723 -14.473825 20.877178
-62.713963 106.7346 20.587437
-110.07423 -5.7270927 20.364981
-6.6092887 111.74047 20.225204
-70.744965 -19.645979 20.596844
-36.129436 107.24572 20.592075
-149.21349 -30.474865 22.245544
-39.762543 109.18153 20.421309
-77.046539 118.68633 20.130728
-81.845612 -24.926844 21.267914
-70.479919 122.96268 20.702414
-68.195641 106.69659 20.227448
-124.24902 -43.334751 21.910063
-61.333736 119.56211 20.34572
-170.243 65.001404 20.394201
-19.055782 108.82134 21.511621
-7.6025243 -17.845419 20.547207
-58.753021 -18.548832 20.692699
-20.848564 97.697662 20.384914
-8.0876598 -17.579668 20.944267
-31.771988 105.22487 20.792395
-165.952 102.914 20.483301
-25.321152 94.952408 20.692713
-108.17554 51.57856 20.541512
-59.055107 -16.206144 20.806942
-169.41901 98.878799 20.554502
-76.096344 -16.154297 20.849533
-157.61778 25.389441 20.85911
-105.91573 41.734241 21.17704
-152.241 113.563 20.630602
-79.392723 -22.734524 21.713295
-120.21639 115.21645 20.53644
-108.44714 -6.9687085 21.061426
-114.03707 -40.926434 22.132593
-53.087872 114.41837 21.025398
-89.467155 113.54803 20.983507
-37.160168 99.349289 20.9907
-2.7598774 -29.679323 22.287224
-76.696136 99.35363 21.5681
-158.57201 108.75 20.913403
-11.907291 -20.495115 20.905504
-19.308584 112.02715 21.968218
-58.440556 117.0034 21.486773
-108.54768 79.66185 20.97414
-124.00354 114.67181 21.818089
-75.778831 118.15511 21.075733
-92.906715 -28.599422 21.310204
-84.552917 -16.598406 22.205532
-105.87202 81.215149 21.351545
-112.95277 73.791977 21.335245
-71.307449 121.49837 21.317329
-107.09174 47.088432 21.364645
-130.41011 -41.361122 23.429258
-28.495417 104.08828 21.777744
-55.470226 106.71854 21.827961
-53.300655 112.96191 21.708244
-117.27184 66.800407 23.771833
-22.610216 103.21963 21.596209
-103.078 -8.6644096 21.209103
-98.832153 110.6582 21.261141
-66.944305 120.52081 21.261806
-158.13214 45.983486 22.809698
-20.43878 103.78622 21.881044
-6.2362318 -23.06385 22.48387
-21.122232 98.580597 21.551394
-106.99763 14.631354 21.433517
-110.73287 -37.135235 22.536173
-9.4201851 -23.178314 21.560009
-159.23508 52.005497 23.138447
-88.38398 -13.283036 22.225805
-18.899576 105.67976 22.0543
-88.101616 -26.709276 21.986183
-108.92899 8.0391979 21.53863
-109.45959 110.74252 22.724033
-93.402328 -11.953371 21.826464
-10.227685 -21.906803 21.711031
-118.30506 -40.683517 23.444254
-16.401012 100.92442 21.774075
