# .PCD v0.7 - Point Cloud Data file format
VERSION 0.7
FIELDS x y z
SIZE 4 4 4
TYPE F F F
COUNT 1 1 1
WIDTH 1572
HEIGHT 1
VIEWPOINT 0 0 0 1 0 0 0
POINTS 1572
DATA ascii
3.2700777 -34.089378 18.954075
107.7402 -113.56731 126.21371
114.33252 86.713097 133.5367
43.305504 -47.977905 59.876305
-3.8519864 109.50684 14.794939
31.097635 -49.424522 49.457626
27.897421 -48.624203 46.594009
108.63862 -112.84612 126.83028
78.124008 -49.133118 97.0802
55.477825 96.10778 73.571686
43.332153 -26.470301 60.553429
29.30965 -44.415203 46.754993
9.866333 -40.787548 27.546307
111.91386 61.884201 130.91791
-3.3718896 110.06973 14.927025
101.50644 -61.314373 119.38907
-8.9531269 103.68129 8.6020393
49.746017 -38.603493 67.94519
8.0192003 -46.210476 26.389091
-8.1073523 112.24228 10.607652
86.010498 119.46859 104.05913
8.5913086 -38.778511 27.102837
15.862564 -41.408203 34.527222
87.216431 -52.703907 105.0791
65.899223 90.009712 81.949242
105.81372 21.5564 124.63237
12.253957 -47.775414 29.815128
62.277908 41.435093 81.539139
113.86057 91.594093 132.85205
61.240154 28.895021 79.634827
4.6129322 -45.434067 22.317585
68.769371 -45.521557 87.179573
109.7295 -126.50471 127.34689
107.30308 108.58415 124.52259
4.491744 -32.211155 19.727249
110.38605 -113.40441 127.9442
25.403097 -44.372562 43.106102
66.064812 -42.194538 83.329323
63.863617 47.501907 82.201645
-5.6258044 110.62766 11.725653
-7.5029278 112.01022 10.072227
56.148239 -29.029995 72.350906
54.770981 98.739235 72.851639
54.036087 -6.9644265 72.355957
-3.8612962 -42.852798 12.448969
7.8492823 -34.221931 24.903301
50.824009 -8.5929203 69.101448
35.233322 -50.180386 51.799355
61.104553 21.653881 78.965775
110.47762 -56.825584 127.21545
67.185127 85.711472 84.816383
45.140915 -43.787594 62.666809
11.744387 -42.007565 29.187864
83.684372 -51.03252 101.36522
76.271736 117.00349 93.468208
111.52336 -113.92143 128.20215
36.331692 -41.501553 52.497814
65.581024 52.487808 83.567032
23.1982 -46.405308 40.682045
97.732178 -105.70279 115.37115
31.408794 -47.104095 48.542538
47.064152 -40.703629 64.535324
36.158882 -39.406887 53.756927
61.34618 104.42318 78.410477
110.00202 -123.35358 126.96795
63.632885 -39.42886 80.515076
-7.5110893 106.67519 9.1897354
111.84158 58.642723 129.31241
2.4950848 -43.761093 19.504433
18.091841 -44.057655 35.702377
18.347567 -46.216339 35.419968
109.48634 -115.45659 126.47056
59.376209 96.344269 76.184113
95.282867 -60.206032 112.44278
99.777321 -105.75995 117.32116
58.70789 -31.286844 75.855453
62.388958 -6.6872969 77.2164
83.390404 119.02885 99.378166
47.575436 -18.651415 64.175133
62.23772 102.06388 78.096069
98.16716 -107.12102 115.54311
3.4853449 -44.39135 19.870163
67.913879 56.253105 84.423904
40.085545 -35.917068 56.959682
97.253906 -107.15945 113.41129
107.95459 9.9106274 124.13795
94.839165 118.85549 111.75697
100.48576 -101.80934 117.13529
112.26579 102.076 129.52089
10.796782 -44.487736 27.622852
108.99364 -63.584721 125.13513
101.97295 -91.011658 119.20465
99.147728 -108.09206 115.87354
72.38855 114.56959 89.347595
110.02892 -121.06805 127.46431
96.973137 -91.786751 114.00928
57.544697 -28.90707 74.072266
100.22469 -108.68719 116.6892
111.52103 -8.4338789 126.27081
99.222084 -103.70634 116.34072
112.74516 -114.46898 127.72552
115.02501 101.09435 128.50685
108.21643 -0.9911347 125.3257
101.59 -86.994705 118.52505
100.37722 -65.988083 116.47958
101.87902 -104.48276 118.61384
70.517784 62.497608 87.744316
15.775038 -47.560009 32.55706
16.521503 -44.393738 32.554409
111.16959 -53.719296 127.27
15.534733 -42.176811 31.686653
49.637154 -11.878015 65.743614
98.109001 -103.1477 114.831
8.8003368 -39.057144 24.950094
62.504982 98.565735 77.734016
32.331532 -44.677219 48.931881
8.1455097 -42.866024 24.439447
62.405807 2.034935 79.069992
90.381355 120.14637 105.98267
39.553448 -50.763 56.094578
64.94236 104.25388 80.232094
90.83757 -59.06366 106.54837
110.8791 -122.7501 126.01793
108.5428 109.91287 122.05421
13.856213 -45.385693 29.541405
110.96677 -118.84885 126.67743
37.542126 -39.218285 54.901814
104.27283 -102.78776 119.57329
6.7572765 -32.654907 23.112
92.270004 -91.29213 107.9079
86.782303 -54.03149 103.21571
100.41132 116.50773 116.59148
111.45447 51.309185 127.79858
107.49748 16.6626 123.95271
96.697525 -85.326622 113.06827
80.872673 117.90147 95.66552
109.82381 42.799538 126.34901
69.480949 -44.323971 84.409447
105.30777 -95.262817 121.57527
75.238403 70.054817 87.957504
13.983208 -40.642311 30.524448
110.3114 -123.6374 125.37985
5.4931245 -43.061504 19.983948
105.56331 -66.641197 121.97365
45.264767 -40.442158 61.6012
7.209445 -32.426472 23.773766
44.115303 -29.536865 59.705162
100.20992 -104.0484 116.19201
69.505646 110.2002 84.807907
110.78645 -70.206322 126.12349
16.201555 -45.992176 32.021278
46.870255 -22.658752 62.616814
72.44593 80.442047 87.489555
98.434242 -100.80601 114.79649
106.76081 -104.08506 122.06809
99.220207 -107.1028 114.52058
41.492298 -48.978844 57.453449
3.1049695 -32.581234 19.0243
99.159676 -107.59875 113.13383
74.550835 -47.811901 90.558601
43.847893 -38.044262 59.685646
63.262196 94.640533 78.878059
115.12361 105.6422 125.55527
41.605042 -36.807598 57.767151
103.04202 -106.3317 118.72948
93.210205 -85.50312 108.69347
98.066162 -107.9258 112.52888
57.131783 -27.003178 72.219017
106.70492 -86.961662 122.70325
103.04166 -82.318573 118.40401
95.864075 -102.17645 109.93153
94.816292 -62.492378 110.39542
52.252529 -9.6399164 67.167496
111.10315 -68.398834 126.11327
110.08101 -109.37589 123.92422
109.51408 36.326599 125.3076
108.82609 -98.816048 123.75004
97.432701 -104.18633 111.8335
98.71743 -109.18924 113.20179
83.17749 -51.536736 98.834961
98.992111 -103.40791 113.6373
113.02122 -14.162935 126.16031
50.734886 -33.091328 65.652
112.21049 -42.272018 126.91212
87.686295 119.93217 102.37114
77.042938 76.198174 88.61351
39.729374 -49.283138 54.304516
80.073868 -50.032688 95.328278
38.280899 -41.98262 54.04213
93.050766 -98.100548 107.63605
74.881897 79.645981 87.400635
4.3445621 -41.935783 18.783102
-1.65342 -41.717812 11.957094
54.916092 -7.3154049 70.839897
35.296524 -48.00774 50.664803
95.063301 -81.961075 110.09481
62.154755 10.783719 77.71463
109.32739 -75.72525 124.00246
35.487083 -45.392578 50.69706
107.31988 -105.88087 121.5597
49.632462 -30.394426 63.879326
66.388527 -42.913223 81.507439
8.4067173 -36.391499 22.834692
40.25515 -41.079762 55.378891
91.652733 -90.551147 106.45258
110.73746 -108.6303 125.5037
2.9124851 -35.657513 16.83322
43.690582 -45.369827 58.564163
42.555687 -42.517109 57.046539
42.290314 -47.075008 57.230652
109.53502 31.6056 124.55835
107.2859 -84.00042 121.74242
112.65627 108.83443 122.68938
91.749954 -86.940071 106.33319
41.392551 -44.226795 56.09576
104.49104 -106.78067 118.57951
6.9412007 -34.763462 21.661072
75.547562 114.44026 89.61792
52.212463 -13.021781 65.086319
109.39356 -103.27366 123.57944
99.774872 -110.242 113.22231
99.770782 -68.085503 114.45145
7.702527 -35.013577 21.805141
75.012512 -46.117813 86.343979
104.27712 -72.78624 118.25275
113.47827 -33.266556 126.85629
111.05425 -110.38715 124.54169
109.77995 3.21381 124.32613
113.66586 -84.00103 127.96561
86.830986 -55.12569 101.16238
113.12349 -87.709976 127.56656
114.61703 -66.501289 128.57465
97.637054 -79.658028 111.83176
7.244473 -41.477684 21.38028
50.494385 -19.604649 64.188187
113.11271 -108.59177 126.62714
113.67925 -77.893669 127.79169
59.068649 -29.668213 73.328888
112.33088 -118.0252 124.80987
62.548187 -37.167599 76.928757
110.45998 -98.93383 124.76118
108.78957 -76.803764 123.2104
115.01521 -89.13588 129.15988
71.105438 86.515083 84.086258
110.04555 -96.050171 124.41235
113.03199 -98.196869 127.14941
73.498299 111.79201 86.560326
113.68475 -115.2887 126.8255
39.155472 -46.768692 53.295433
-0.030361176 -39.582119 13.285244
55.301113 -25.188974 69.135437
6.2309356 -38.304913 19.788052
0.059965611 -39.734642 12.195051
88.274498 -96.720757 99.633705
112.57272 -110.38277 123.93044
115.99135 -85.194443 129.81589
50.244751 -24.410309 63.038582
66.53376 95.307922 79.353188
112.12285 -86.150909 126.0295
95.459923 -64.27356 109.07859
110.58559 -89.196648 124.01437
2.9438257 -34.530087 16.672001
114.23087 -116.12872 125.29621
119.96226 -49.824528 130.00481
111.34586 27.061852 122.89135
57.800865 -23.803473 71.174538
110.25994 -107.22946 123.82632
90.769287 -59.502434 104.34732
116.49517 -91.149574 130.10222
112.91971 -102.7149 126.09151
93.138245 -81.844704 106.62029
107.88171 -106.90815 120.42226
103.37154 -108.98401 117.13229
112.10985 -118.96038 123.15927
98.273804 -107.11214 110.38171
108.97794 -80.855614 122.29648
114.77618 -23.51362 126.36016
58.610565 -25.99107 71.99826
2.3777003 -36.770164 14.212738
106.1293 -76.163315 119.17052
111.74509 -104.97726 125.09409
64.570068 -40.787601 77.928925
115.78975 -76.470528 128.76793
104.39288 -80.073418 117.56798
62.209976 -34.404408 73.100815
98.817657 -68.300301 112.09958
1.9873614 -40.840214 14.786098
67.562866 98.354935 78.940048
4.3562303 -38.298183 16.888931
54.558884 -21.538481 67.315468
117.01122 -96.664207 129.52808
59.547203 -27.750193 72.584145
62.937576 1.9761013 75.421127
90.606361 -89.127068 103.17387
109.9817 -83.680603 121.73518
3.9682841 -34.538536 16.66301
55.346817 -8.91008 68.443962
103.24203 -110.34988 115.10088
54.426262 -20.237984 66.159355
112.39613 -120.12865 124.49348
70.207817 91.361153 82.097237
67.15229 100.95986 79.264839
99.394058 -105.56613 110.16882
114.79532 -109.89899 126.25481
119.74383 -56.05164 130.23152
91.899628 -100.28418 103.04594
88.835938 -92.660706 100.29391
97.983688 -105.48136 110.5963
116.88734 -63.766602 129.74443
100.63203 -78.793663 113.36316
110.17065 -84.851265 122.66888
106.13004 113.056 118.92366
82.162827 -51.206997 94.085693
117.60915 -101.62888 128.43028
110.84235 -108.98223 123.22748
63.207542 -4.77244 75.887718
116.60394 -74.948769 128.75418
77.759254 -48.339382 90.16346
120.09786 -74.881134 130.59616
118.78615 -90.119034 131.14799
97.929375 -78.925484 110.30198
52.53006 -19.571232 64.911987
110.41246 16.8291 122.80125
112.90052 -1.11971 125.28275
58.808899 -8.0191402 71.049698
112.38431 21.768587 121.50401
111.3114 9.8408508 122.89153
108.43417 -82.277382 120.05026
93.233101 -82.499054 105.34174
96.319679 -79.666565 107.49314
110.91882 -84.944427 122.85775
108.328 -109.53168 119.34319
64.715897 41.630646 76.794769
63.241779 30.048319 74.924995
87.083008 -55.094875 98.732162
53.927742 -15.642577 65.117905
102.75359 -73.020729 113.21813
104.87356 -79.061951 115.55015
119.0723 -82.731972 130.53311
110.15855 -109.76569 121.39272
66.488663 47.978786 77.931366
59.964432 -27.763847 71.308029
111.78957 -112.52232 122.73794
59.875935 -20.688311 70.128967
114.32692 -5.63661 125.9805
62.795429 20.713053 73.955063
119.57108 73.349998 131.1803
113.24684 -111.46132 123.07961
91.835052 -86.540291 102.93948
92.273827 -60.329243 103.17883
117.60559 63.087299 129.1096
121.32682 -88.479485 131.78459
118.74329 67.623398 130.21486
117.63173 -31.864502 127.32904
97.193436 -106.79467 107.33812
69.306107 52.250362 78.127457
55.194599 -17.653784 65.726685
58.152287 -10.022924 68.631607
119.55401 80.744003 130.85089
75.460449 63.808342 83.658691
96.779846 -65.459061 108.27489
116.37905 58.686417 127.85128
72.61998 107.92901 83.124039
115.42339 -110.95391 125.43372
90.460152 119.65402 99.388481
93.759216 120.16562 102.90964
114.52984 43.160358 125.11639
87.435875 118.82969 96.597466
119.08891 87.142097 130.02197
60.817459 -25.340836 71.468918
99.999245 -78.420868 110.52911
113.25898 -117.64382 123.37812
112.20863 -115.68115 122.39355
77.491737 74.785072 87.661537
70.891617 -44.963257 79.562363
121.52502 -71.398277 131.21014
102.97903 -111.01266 112.93137
98.483406 119.35787 107.69889
98.560066 -108.32171 108.5178
63.16394 -8.0474501 73.895416
116.23759 -9.4625635 125.98553
56.639858 -19.55834 67.078972
108.19923 -83.276833 117.96738
118.06192 92.536804 129.4319
70.121201 94.023499 80.665085
84.671562 -94.084656 94.149452
85.924072 117.0094 92.709106
116.33517 -107.11275 126.7001
88.15686 -89.453728 98.152023
121.87268 -92.473534 131.76836
105.20415 -76.503716 115.33427
94.379128 -63.45155 104.58598
65.942352 -41.684978 75.306091
88.671249 -87.131523 97.023468
101.67956 -89.672203 111.89072
97.475685 -90.351196 107.6659
59.367706 -11.946525 68.514076
103.71242 116.957 113.80353
113.31093 34.096878 123.43562
110.03634 -111.76575 118.3027
101.51942 -92.319603 111.54035
123.37527 -86.870064 131.44846
63.561718 11.721904 73.292221
86.076149 -98.520149 95.438469
71.157761 104.671 81.109192
62.243103 -31.66861 70.237961
101.08013 -109.99178 108.40687
93.503197 -89.043404 103.32281
112.40742 -112.29144 120.16875
97.44931 -88.4478 107.24254
118.69556 -16.740641 126.36737
121.52347 -97.534843 130.73773
83.685661 -51.758984 91.950233
76.962082 -46.999535 83.654968
60.290127 -17.165651 69.403534
92.444862 -104.20789 100.36724
84.708405 -90.775589 93.700226
95.174416 -81.084732 104.86707
64.538071 -7.432724 72.085251
88.184387 -53.714909 94.869537
61.736946 -24.642122 70.58239
94.599182 -82.943489 100.57616
83.887878 -89.353424 93.181152
107.65976 -78.881081 111.76366
97.761612 -92.831902 107.11127
120.43793 -102.83302 129.02129
108.89394 -82.289131 117.56934
81.170128 -92.463303 90.095894
110.23507 111.96379 119.01905
113.17593 -113.11385 121.73859
78.778633 -97.801979 88.082298
122.24487 -63.516285 131.25882
102.3187 -74.151459 110.7778
116.96771 -109.16106 125.47408
94.620453 -83.235023 102.52586
69.016449 -43.978905 75.647003
77.991119 -90.090965 86.237518
85.777122 -88.374146 93.997505
79.61084 -88.753494 86.921387
106.26926 -78.576942 112.62029
91.648956 -88.052605 99.451309
64.109573 -11.192585 72.190536
122.6911 -57.830608 130.97212
79.876869 -88.490562 88.016136
62.951012 -20.950872 71.322502
107.42886 -82.09166 115.39499
92.696045 -90.718658 102.41969
115.26422 -112.01247 123.4046
64.149597 3.1674531 72.148773
120.60555 -22.533695 126.38203
94.207848 -86.80024 101.90778
102.42439 -87.759903 110.88992
123.99417 -92.153198 131.71629
78.009369 -96.432663 86.64888
85.930168 -100.27946 93.939537
81.295998 -97.763367 89.308174
63.368793 -34.725094 69.783875
98.424553 -86.065041 105.55924
78.817253 -94.273506 86.361107
126.08284 -89.821899 132.71269
125.16428 -71.346069 131.94617
74.864601 82.4916 83.074394
122.83526 -27.246044 126.43392
71.468819 100.88341 79.717598
80.027985 -100.59811 87.586243
62.785072 -16.117897 70.424797
80.456718 -98.013779 87.897072
115.79306 1.17092 123.9034
120.13384 -105.74091 127.60963
116.95999 -3.3903501 125.00204
87.72319 -90.107483 96.098495
77.609528 -88.04982 83.723312
83.983879 -86.792831 91.040565
75.526566 77.956764 83.454102
82.000771 -100.33739 89.160347
106.01871 -112.09143 110.24384
76.87439 81.410179 84.790421
122.96145 -101.42105 129.86201
80.669434 -89.026039 87.889267
83.823486 -89.547104 92.27681
91.758636 -93.794487 98.400772
123.45642 -54.505486 130.69209
115.48715 108.84352 122.85295
94.58284 -65.211525 101.94446
81.952484 -84.273521 87.335953
124.76974 -81.868858 132.13336
89.138107 -103.20393 95.469635
93.772079 -93.109001 101.37526
82.937485 -90.52626 89.998993
86.274292 -87.711449 93.410355
80.578926 -48.424133 86.168785
64.510544 -14.4482 72.036713
120.58042 104.01679 123.54836
121.43487 -34.047211 127.4468
114.80437 5.8414302 122.25743
77.193336 84.868233 84.537697
78.483055 80.425682 85.696037
78.566467 -88.416862 84.670303
78.658646 -87.214363 84.744553
89.499428 -86.098785 95.921715
79.159195 -98.523697 86.49437
87.284744 -92.074959 93.617767
98.561287 -80.550652 104.86575
102.20794 -85.658897 108.53844
114.25552 11.071496 121.43473
105.48305 -80.915733 112.12656
80.773293 -98.712906 87.912315
113.79206 17.302601 120.83303
77.43219 -96.251625 84.063004
73.966026 80.993599 80.978035
82.188766 -87.399216 88.876389
81.984703 -96.776581 88.004921
108.27535 -112.39982 115.0315
117.15096 -110.55983 123.45312
77.133049 -94.40416 83.700569
103.14828 -94.733803 110.0345
83.231377 -97.309441 89.83712
113.00627 111.42847 119.92047
79.927757 -101.23253 86.304359
76.142235 86.601418 82.38282
74.377304 78.115402 81.187592
85.965271 -86.627457 92.013504
101.38495 -74.428207 107.36806
115.2175 -112.15768 120.84119
65.101242 -17.43339 71.519073
108.78931 -81.254875 114.49174
65.177979 -11.541276 71.464081
90.203575 -55.705864 94.649879
105.48218 117.034 112.02245
67.114212 -41.323101 73.628754
74.659332 84.489799 81.167191
78.464287 -90.073471 84.339424
83.798668 -102.40775 89.006798
76.348045 -92.45195 82.141685
76.224953 96.956772 80.035332
79.405083 77.674156 85.526024
78.062347 89.715065 82.487137
65.875748 -37.946144 71.89447
65.197632 -6.2408748 70.238892
64.288345 -28.846767 68.688217
78.09713 -97.917511 83.873009
80.695129 111.42901 85.277573
127.2362 -80.265694 132.3752
80.521172 -86.86731 86.494179
80.217896 -96.988922 85.664139
103.09023 -110.8112 107.13733
78.935905 108.24888 82.806694
80.602974 -91.784698 85.712975
108.74198 -85.73288 114.59931
77.715561 92.18885 81.856049
77.390518 93.940826 81.004013
78.834702 -88.265907 82.518509
77.123741 75.322922 82.929741
77.197075 59.379368 77.366753
106.33883 -88.850899 112.2802
78.230042 -87.686081 83.337494
108.34469 -84.261093 113.97346
100.06772 -95.727798 105.96906
110.05638 114.022 115.91939
66.431122 36.585018 72.334518
65.259285 28.460764 70.905418
108.73155 -87.182358 114.14075
92.847 -86.40892 97.427536
65.676994 -36.986298 69.779808
113.63101 -113.34019 117.45122
77.811195 -96.345558 81.974373
67.769943 43.355778 73.394226
125.14684 -53.599483 130.26453
64.839409 21.52857 70.10775
106.81431 -83.8041 112.38454
126.48407 -97.871971 131.17694
120.70174 59.690941 125.96925
118.82967 49.580402 124.18994
85.214584 -93.844246 89.712189
69.211983 47.863197 74.241631
121.74828 63.873402 127.12643
79.466431 -90.821503 83.419922
83.826004 -84.977097 86.192184
126.5456 -64.99765 131.17998
73.259682 -44.870804 76.425102
94.789513 -65.337326 100.49068
104.16705 -78.890434 109.64012
127.60376 -89.773972 132.6059
96.51693 -85.52356 101.64422
83.715172 -50.364845 88.415688
115.71276 112.46223 120.50808
125.81026 74.342888 126.56016
122.84658 68.600998 127.94439
65.942604 -24.745689 69.453545
91.641609 118.61671 96.418694
122.91315 81.557533 128.09882
94.519814 -95.284554 98.915535
74.013367 81.032898 78.936661
108.2477 -81.173729 112.49043
76.043274 75.963837 80.209778
116.49927 32.060772 120.92996
65.520485 7.9555011 70.149239
74.321182 78.2873 79.136551
79.885666 74.819641 84.592255
79.979874 -85.172684 83.609711
103.09992 -84.96701 107.88085
74.589149 -45.518818 79.179298
117.61708 111.36997 121.67348
94.48867 -106.78702 97.55677
106.27077 -80.546837 110.12019
122.3202 94.192001 125.3857
114.77842 113.42551 118.15772
74.566299 85.050903 79.110626
78.696823 68.578125 83.062653
64.717033 -32.190895 67.786812
96.837746 119.18055 100.73283
128.66255 -86.543121 133.04955
79.916786 -86.699486 83.486519
78.587433 -87.513306 81.819641
108.31944 -83.205711 111.86873
80.491127 -47.102936 83.159203
113.94327 112.64407 117.09776
79.015999 74.304497 82.880913
128.50829 -93.370567 132.42842
66.308029 -7.4049006 68.83519
103.92153 -78.050407 107.39994
78.413185 -87.824707 81.578758
77.079102 -92.575333 80.258179
124.45882 -104.36486 127.92914
87.217377 -85.880989 89.957123
118.39529 -112.18256 119.91917
76.819534 103.874 80.919022
107.78544 -89.864502 111.88293
77.959442 64.865952 81.426514
121.51488 -108.09396 125.17509
101.89362 118.43542 104.8611
106.23194 -78.548592 109.03533
101.19482 -73.742828 103.22716
118.52852 28.627728 118.13005
76.137688 87.179901 80.011284
93.384804 -82.971046 96.824883
79.527504 -88.16375 80.997139
96.85215 -82.052315 101.16561
121.00497 -7.7862191 124.75855
79.785141 -100.17409 82.771027
83.425629 -83.213837 86.804443
114.43877 118.67863 117.27941
82.249451 -83.424889 85.234604
118.66093 1.6392919 122.52679
115.27808 119.67429 118.07338
88.943237 115.90343 91.864731
126.57042 -49.175285 130.15694
124.12416 -33.608315 127.64655
89.923622 -85.609955 91.739098
122.28681 -14.709939 125.67286
77.156746 70.244644 80.275154
117.19574 7.3010182 120.55128
128.14433 -62.387138 131.4135
118.24953 114.4889 120.36945
80.685562 -92.776253 82.951172
68.341225 -17.333094 70.556602
106.91431 117.139 110.21272
85.979935 -85.761299 89.663437
122.84586 -21.106609 125.93255
117.46773 23.468853 117.80717
108.03846 -79.104485 109.86263
101.30856 -84.719551 102.83006
79.615387 89.558929 81.933365
68.257927 -38.971745 71.203865
66.330986 -2.4100661 68.516685
117.66469 17.797186 117.92163
129.79729 -88.101173 132.9272
118.27606 13.383365 118.15631
80.546967 -90.360992 80.162903
82.091949 -102.26262 85.063065
127.28867 -99.836601 130.22108
129.45549 -74.587326 132.10454
98.054527 -108.05505 99.755943
71.415749 -43.5905 74.13369
92.073441 -58.371555 94.461639
111.82549 114.7602 112.38914
69.770004 -41.532299 72.453217
77.476395 71.464844 79.07489
89.890266 -95.794075 92.373177
96.671257 -65.937157 97.511925
93.783615 117.9573 96.22435
76.682396 66.464188 78.423653
81.768143 -94.078903 84.11908
106.17735 -79.224846 107.74663
114.35973 118.32864 115.77832
119.14188 113.39661 120.59213
117.66003 -113.25481 117.54043
107.76251 -77.930603 109.66229
100.38019 -71.27681 100.72072
81.033165 90.019173 81.249077
114.50069 112.77895 114.45433
76.521843 78.172539 76.650734
77.696831 75.158333 79.212517
76.440155 80.735168 76.456818
94.501846 -85.993668 96.595016
75.974251 85.072899 77.629143
102.60596 157.61775 103.49699
85.963387 -49.211246 85.294518
103.92066 -78.440796 104.88259
77.639183 87.006775 78.169685
104.37074 -80.462776 104.38211
69.325211 -22.161852 69.311096
84.695763 -84.53756 84.990685
68.828056 -24.744108 68.73336
101.47959 157.37155 102.26882
108.58948 116.34162 108.57718
82.520218 -85.299889 82.797318
92.9375 115.67438 92.950485
87.654541 112.42333 87.675186
80.793777 92.750168 80.856277
115.26529 115.38596 115.67343
82.985008 107.83725 82.982552
96.395126 117.08681 96.453262
80.792763 103.21179 80.80645
71.027168 -39.542049 71.006432
99.756569 117.36426 99.770439
82.255119 -88.396309 78.812019
103.52226 -109.23392 100.09341
112.08426 134.08182 112.43141
80.324852 94.986053 79.951042
82.925156 -85.841301 79.722153
80.276321 97.430855 80.268921
67.208527 -29.359701 67.174835
81.341774 -86.809769 81.000938
104.11879 117.18337 104.08669
66.564728 -32.439232 66.628281
78.440407 66.223778 78.49836
107.21353 -111.23087 104.14903
75.305389 -44.066883 75.303802
72.603088 -42.140575 72.564743
66.996994 -34.996342 67.008408
87.84623 -85.144814 87.737373
113.89865 -113.79333 113.86789
69.191399 -38.147137 69.203026
77.752228 -45.03442 77.653656
81.145134 -91.079056 81.056786
88.950249 -104.43464 87.914436
116.20366 -113.76938 115.12965
124.08714 -107.84866 123.98943
88.132942 -104.50742 89.184654
127.75356 -102.56761 127.73055
84.908096 -102.09213 81.739624
84.065239 -100.80043 79.812477
81.741745 -98.947197 79.322769
130.3461 -96.017693 130.38376
92.20533 -96.399391 92.198982
98.143997 -95.81234 98.310562
102.61816 -95.897697 102.61816
83.566956 -94.879997 83.537918
106.12824 -95.166397 106.12824
81.97831 -93.389549 81.422493
131.57755 -89.785927 131.58221
110.44301 -90.063599 110.44301
82.442947 -87.707962 77.968353
112.4519 -87.819504 112.4519
91.566917 -85.632484 89.945396
113.21911 -85.397003 113.21911
90.203674 -85.986031 87.326279
131.59869 -82.853996 131.68146
88.04274 -84.81926 85.522675
105.60499 -84.316101 105.60499
112.3727 -83.337196 112.3727
110.02298 -82.605904 110.02298
100.80449 -81.627769 100.59071
109.30154 -77.771835 107.92327
130.38565 -63.503941 130.36359
92.12059 -56.239418 91.556473
89.861916 -53.045757 89.779213
129.05209 -49.79348 129.04776
125.4046 -26.958431 125.43015
124.69835 -16.67462 124.6091
70.035629 -17.32168 69.275223
67.765648 -13.861976 69.654854
68.585991 -7.7557259 66.564079
123.26858 -6.955986 123.28478
121.21857 1.44841 121.10704
67.629303 7.3819895 67.729538
119.37304 7.9479365 118.69094
67.234039 21.485456 67.16748
67.894745 29.652914 68.0439
70.046921 41.863991 70.27652
121.97658 51.248493 121.93106
123.45285 59.163094 123.66769
79.909698 64.918663 78.923538
124.91112 64.240402 124.91112
77.791122 66.600517 76.748428
125.83036 69.090797 125.83036
125.73956 81.311493 125.74483
77.215439 85.098793 76.684082
119.33038 107.72442 122.71001
122.33483 108.51295 119.4786
117.88773 113.57172 114.90968
117.87311 120.1639 117.19458
102.00743 157.20107 101.59027
101.53122 157.86409 102.91447
98.335022 -107.26605 95.514404
94.428772 -82.858978 94.508835
115.05132 118.75367 114.47168
103.21597 158.13417 102.6651
81.681335 -87.369278 78.806961
97.394257 118.62752 93.765366
108.16838 -79.349586 106.49228
79.451019 -94.666481 79.449188
79.413963 -92.426445 77.830162
116.61009 118.40324 114.28539
120.17572 114.9691 118.29529
103.25296 157.36264 101.77536
110.38787 -79.355576 108.07616
79.271767 74.548248 78.161003
85.809044 -84.985573 83.413857
84.012871 -85.783203 81.38018
79.424026 87.177383 76.327194
105.32128 -78.344803 103.79281
83.596581 -91.46656 79.749962
82.920151 -88.214378 78.35936
89.797264 -85.768188 86.056847
70.878555 -13.681365 66.470032
123.69053 104.23901 120.28791
105.64117 118.65286 101.60531
101.69862 -70.984764 99.591087
83.781563 -47.539692 83.341103
118.01786 119.77029 115.20025
93.120621 -52.851177 87.737793
120.24631 -112.29785 117.38762
117.61351 118.77654 114.67221
87.049843 -83.483856 83.775215
85.645325 -83.170799 82.495087
110.32428 -111.97887 105.61839
80.151428 69.783951 77.076065
100.40144 119.05573 96.814636
84.510788 -94.347404 82.208878
82.021835 89.278915 79.350037
83.88121 -86.755775 79.74231
109.54637 -78.813995 104.90663
82.554558 74.460968 78.885933
125.16737 -108.15245 121.37984
81.633331 64.943871 77.971069
93.41568 -95.914116 91.061798
97.798492 -64.415092 95.062119
79.822739 66.193573 77.142822
68.837837 -29.216892 63.769756
127.64238 -104.82662 124.12529
94.771637 117.81234 90.859314
69.44014 -37.4039 66.654633
68.448219 -32.183594 63.960213
76.124695 -44.790699 73.544357
130.14037 -100.09735 127.13712
132.75446 -84.234093 129.89917
68.778824 -34.806004 64.418854
73.126305 -41.39452 67.741081
113.41079 114.894 110.69964
75.000977 -44.090225 70.086792
71.234459 -39.048939 68.377419
97.083267 -82.933479 93.529739
121.14291 112.3595 116.69968
82.92984 63.737949 76.042068
132.31192 -93.825722 128.45322
117.03039 -113.1718 112.70312
107.39798 -77.847748 103.74945
132.74229 -89.679588 129.70265
108.16207 -84.820335 103.66224
85.286385 111.41927 81.112999
120.59281 17.620173 114.14252
102.74014 -85.153076 98.281639
80.201843 96.355492 77.010559
96.677696 -86.034172 93.714012
131.11935 -58.654884 127.74838
69.464844 -25.493959 64.972992
80.037262 99.225029 75.144012
118.31808 112.68886 113.88143
126.19386 -26.002504 122.90829
90.387184 114.97005 86.992928
125.88501 -17.128159 122.4285
110.21272 117.139 106.91431
71.26519 -17.136913 66.331444
112.42547 -83.641434 107.19334
82.233978 -96.296318 77.810913
101.07401 -82.049545 97.086815
85.76178 -48.289597 80.696121
125.02676 -9.1586876 121.35959
127.82633 -34.617771 124.31478
84.691284 -90.125595 78.684937
130.32748 -50.409828 126.75766
122.91965 -0.40366197 119.58983
110.05809 -80.495995 106.19753
82.713356 108.20565 78.932289
81.939423 92.129341 78.180389
119.88069 113.89866 115.66383
83.700348 71.211143 79.224899
70.103691 7.7216778 65.549141
81.537811 -92.485138 76.376389
89.271164 -102.50484 84.13504
127.47105 93.636276 120.15037
111.57007 -78.912643 107.73622
131.81728 -70.328247 129.11516
85.538086 -92.834999 81.1604
93.460068 -105.48803 90.972336
83.02301 -46.826553 76.644806
113.18864 -81.205177 108.65959
114.15454 -87.07885 108.83891
123.11665 -110.80544 116.82069
130.62614 -57.617046 126.06185
111.88293 -89.864502 107.78544
80.783257 103.57685 75.364342
93.738457 -87.715652 86.601479
132.31738 -78.736343 127.09128
98.59697 -86.989983 92.396149
84.60376 75.25428 79.961884
80.244041 75.979111 76.012718
131.30223 -97.434761 126.95628
82.7612 89.250694 77.326508
94.602959 -94.633492 90.096291
116.93166 112.88203 112.58264
78.343407 -45.198929 72.822319
113.89957 -84.19677 108.24218
83.498894 -87.551414 78.250389
133.04005 -86.461296 128.47975
122.67316 40.648708 117.49936
79.110626 85.050903 74.566299
114.62408 -85.732353 108.69357
86.445007 -88.406616 79.836426
86.966026 -86.942497 80.836281
105.08763 -80.462578 99.573105
86.909576 -90.659325 80.716629
122.95519 108.70273 115.93595
86.962456 -83.809639 82.074806
128.74893 -42.985703 123.17738
79.136551 78.2873 74.321182
86.980804 -101.19937 80.17601
132.68408 -87.500351 127.36072
126.78542 -29.20207 121.34039
78.936661 81.032898 74.013367
90.111855 -51.044895 83.340111
95.631607 -55.74931 90.066223
69.863663 -4.55234 65.310242
100.74728 -95.272598 95.753448
128.9502 82.28447 121.79442
84.436165 -98.247787 78.217003
99.506836 -106.69026 94.920746
87.04425 -96.909988 81.196045
127.94439 68.600998 122.84658
100.23926 -65.347412 94.818756
75.525352 52.291912 71.6567
70.169838 21.232399 64.795372
128.48181 74.278099 123.33588
84.508118 56.716476 68.229645
74.517845 48.025654 69.087349
90.324928 -93.717003 85.605476
92.066841 116.50839 86.281227
127.12643 63.873402 121.74828
125.86646 59.369171 120.64182
112.39167 -78.433907 106.28431
85.980408 -87.610779 79.060883
124.74573 52.653984 119.14742
91.471275 -91.676651 85.296013
126.35859 -24.142717 120.6939
82.161964 86.476868 76.015739
129.69153 -101.88355 123.83839
73.283615 42.283112 67.417984
132.3096 -92.677391 125.97724
97.831612 -83.910118 92.359367
82.699951 75.629852 76.656784
70.238197 -35.119183 63.375057
91.809235 -86.50441 85.879303
71.897514 -37.862164 65.786644
70.935822 29.37849 65.423676
99.101425 -87.927795 91.572235
90.305618 -97.573517 83.598206
107.43594 -73.022156 100.52581
83.982765 -95.319824 77.17263
120.83678 -112.20052 115.04195
70.908981 -20.182802 64.329193
97.890938 -93.803276 91.391975
112.16551 -80.877335 105.52473
105.96906 -95.727798 100.06772
90.438324 -86.465736 83.732803
84.436989 85.185608 77.236977
112.2802 -88.850899 106.33883
71.593742 -9.7687407 64.804665
80.309601 95.092003 74.24556
126.47437 -19.882647 119.48484
96.00222 -91.011612 88.122063
131.85422 -69.804939 124.75828
107.30929 -85.560158 101.00108
126.14845 -107.88423 119.32595
87.349838 113.05151 81.004318
95.647308 -86.212585 89.189972
114.01922 -111.97372 106.18391
101.98582 -65.418304 94.7052
85.577072 77.972832 79.319229
86.54586 -98.651283 79.293785
130.22073 -99.72506 122.7942
89.61692 -99.837067 82.155464
82.632904 83.920265 74.912918
132.70297 -87.637413 125.85566
101.66544 -82.471451 95.483475
112.93687 117.03753 104.72593
85.510506 -88.333351 78.775871
115.10728 -81.922974 107.36612
87.185867 -97.472748 79.846878
117.05878 -82.201912 108.72504
108.95654 -109.67342 100.43589
87.520287 -88.774094 79.614372
84.390587 -90.034508 77.036491
71.354347 -17.647783 64.374077
121.83658 -113.21396 113.29953
93.898285 -87.849854 86.094727
81.187592 78.115402 74.377304
131.27533 -64.399315 125.22958
95.447205 -103.1532 89.068359
121.49326 11.955549 113.87895
121.31097 110.03125 113.08208
110.0345 -94.733803 103.14828
125.75397 -9.3153868 117.67222
130.88159 -55.833534 122.7481
87.998459 -99.045403 80.807144
120.05757 -112.28787 112.27063
103.25111 -105.17455 94.472237
101.56094 -86.790573 93.981773
80.978035 80.993599 73.966026
127.39083 102.1552 116.09718
85.619034 81.474052 78.135818
114.27782 -79.508507 106.76189
132.0612 -82.986496 124.3691
111.6606 -87.106361 104.16725
93.875908 -99.38736 85.301125
86.552086 -93.456482 78.824486
129.40376 -45.304539 121.81282
92.271065 -89.656189 83.842705
101.56687 -85.841805 92.131477
90.081696 -87.350563 82.210709
108.31888 -106.98631 97.671677
83.516403 77.98069 75.571304
131.73015 -92.002647 123.91769
122.25743 5.8414302 114.80437
125.78211 105.0975 115.69724
72.115356 -12.516356 64.431458
70.626434 -25.277662 61.333729
86.678963 -96.384079 78.083061
101.37526 -93.109001 93.772079
103.07925 120.21487 93.554253
129.81236 -101.1038 121.24205
72.864548 7.6406813 63.836231
131.58795 -87.747612 123.66624
97.397217 -55.236057 89.188446
123.58556 -111.89207 115.35641
118.34512 -111.76642 110.03253
121.01593 22.264799 113.17216
109.84313 -78.637444 99.624474
88.135559 -98.116592 78.92894
103.02524 -84.644249 93.104813
99.592728 119.70237 90.328186
97.536919 -89.492661 89.124016
87.189377 -89.961281 78.69458
112.23586 -76.753975 103.86126
83.574692 108.959 75.580902
86.278877 -46.601818 76.238258
88.46254 -96.412079 80.501923
125.00204 -3.3903501 116.95999
77.125137 -43.841522 68.434906
126.42177 -107.63875 118.4368
123.9034 1.17092 115.79306
69.49334 -12.365218 60.814262
96.507309 118.79664 87.203751
92.640678 -96.001022 83.756401
82.992157 80.790802 74.784576
115.31876 -80.96286 106.45531
94.113586 -89.833366 85.270004
131.26595 -71.210304 121.65791
122.27615 28.814764 112.9291
93.344536 -89.312042 84.23893
92.420403 116.66962 81.965889
101.89265 -61.486965 92.953979
102.73785 -90.646355 92.955383
125.07216 -110.55312 115.69234
130.03799 -49.799843 120.14252
127.23969 -31.404013 117.16947
105.84799 -65.065247 95.653351
69.687157 -16.852913 60.73632
102.58342 -101.82535 92.291351
72.581696 -10.1801 63.788227
113.59801 -78.598022 104.04293
91.4561 -92.356186 82.240402
131.77611 -92.48085 121.94865
82.484383 -44.785732 70.433235
131.26816 -63.521843 122.22121
98.488518 -88.014244 88.866417
92.732231 -89.932404 83.184776
123.48705 -117.8827 113.18188
109.63929 -108.49972 98.889107
119.24236 111.7817 109.94558
85.932121 111.44365 76.31588
104.6718 -81.277588 95.150299
94.422523 -93.45504 84.917305
71.222733 -27.998384 60.015915
122.24358 -112.1348 111.48622
131.74068 -88.279869 121.32297
107.11127 -92.831902 97.761612
116.16162 -79.415833 105.18597
124.96777 -116.30893 114.16036
72.997955 -34.735954 62.433121
73.476898 -3.67906 63.891327
129.86119 -79.309235 119.50749
75.475952 -41.654594 65.792831
98.898735 -55.102169 87.158134
124.23546 107.28528 114.35924
113.59611 -110.79914 102.92565
118.45933 -83.289078 108.38161
109.63971 -68.18679 98.746201
107.24254 -88.4478 97.44931
103.52354 -89.508965 93.493141
106.95274 -79.694702 97.112633
123.03464 -111.51757 113.26006
71.999527 -30.55044 60.623493
92.273178 -50.423531 81.202408
102.45707 -59.31316 91.50518
81.576111 105.57135 70.971603
126.46598 -107.51305 116.11991
126.33186 -23.778351 114.46162
129.95535 -79.954376 118.48403
67.77459 -14.566829 57.149006
111.54035 -92.319603 101.51942
123.15965 -85.089844 111.11977
122.36687 -115.88331 112.21716
69.953148 -22.338346 58.713482
124.11157 37.567368 113.70392
114.48576 -75.096634 104.35717
121.62057 -83.639267 110.02287
71.409477 -24.907206 61.132607
111.89072 -89.672203 101.67956
126.13006 -12.579103 115.93479
100.48505 -92.669189 88.949638
98.108833 -98.697807 87.928398
70.084198 -9.7501097 59.828293
88.272865 76.299637 77.402733
130.29501 -56.429646 119.92743
121.24095 -109.76221 110.18909
101.21904 -89.24324 89.740738
110.71613 -109.86446 99.834663
73.906403 20.929134 62.804691
123.29703 -119.28494 112.01849
80.665085 94.023499 70.121201
118.87787 -109.59125 107.65134
99.637817 -96.717606 88.289246
122.93026 -111.58601 111.55631
73.895416 -8.0474501 63.16394
129.48511 -68.268974 116.74859
68.088333 -10.732354 56.407864
109.08402 119.26867 97.960045
129.47504 -98.654442 118.19783
87.421585 78.379944 76.802155
87.113029 69.775467 75.854713
126.61777 51.50388 115.46425
81.967552 91.68383 69.753822
106.70602 -63.942104 95.530785
126.34927 -109.84232 114.67545
126.77231 -114.95535 113.91199
123.98783 -110.36768 112.48215
110.04108 -105.81634 99.478401
105.22474 -82.309845 93.388618
127.80981 59.16048 116.80508
85.372498 83.503242 75.591125
130.85089 80.744003 119.55401
79.338318 51.813297 68.052277
79.084465 98.195496 67.848274
127.11191 -34.833019 114.10873
116.84247 -109.23584 103.16922
104.43577 -99.472778 92.327782
109.51631 -102.8029 95.936188
130.21486 67.623398 118.74329
130.3987 -83.262001 118.1559
129.1096 63.087299 117.60559
103.97526 -86.91069 91.620857
75.668381 2.0096226 62.874676
78.106735 48.040077 66.374969
124.9258 -118.16142 112.26752
131.1803 73.349998 119.57108
85.852379 111.10806 72.577812
130.99702 -92.257835 118.98097
125.9805 -5.63661 114.32692
88.552048 -47.150009 75.717224
128.14478 -72.589172 114.90306
67.674988 -14.719211 55.677113
74.883072 29.116964 63.1008
8.1450996 -25.065176 -3.5391109
90.729431 115.29655 74.0979
76.95401 41.19434 64.510422
119.04272 -76.112099 106.07094
103.80636 -96.056976 90.946404
114.81297 -72.422203 102.85854
126.77001 -109.00314 112.81312
111.00877 -106.89842 98.213364
122.05853 -80.703827 108.80366
120.62916 -107.07635 108.10004
8.3030691 -29.904402 -3.9580834
79.124939 95.46196 65.636322
126.15964 -14.476676 113.22261
127.63468 -44.290756 113.85401
123.08591 109.1729 108.66335
113.14548 -107.01752 97.448509
79.308762 100.95175 67.30838
114.48045 -110.10704 100.18681
110.569 -105.41813 97.985443
108.27467 -79.68074 96.125275
124.22832 7.9815326 108.26816
81.122932 -43.140663 66.79528
122.65028 21.751339 110.19105
71.281906 -8.1084442 59.05278
124.16051 -85.699142 110.8604
67.381302 -12.593283 55.055481
64.172806 -14.9547 51.638668
125.28275 -1.11971 112.90052
8.0350456 -21.567785 -4.6807876
72.279572 -27.367292 59.843002
112.10067 -78.697166 99.513115
130.7372 -87.847916 117.82774
127.99358 -98.68573 114.60177
10.491938 -27.192411 -2.2296805
118.89972 -106.56765 105.08357
125.82678 -121.4892 111.37871
113.65051 -103.37858 99.007095
63.688004 -13.330608 50.946999
95.336716 -51.626175 82.768936
76.787605 -4.4499469 63.044353
121.5877 -83.852531 107.02515
123.29406 -108.7365 110.69321
105.08387 -89.207695 91.220497
12.06835 -17.407343 -2.4733644
117.1838 -79.853226 104.04475
129.74443 -63.766602 116.88734
8.8704433 -28.236858 -4.3024206
96.131836 118.04714 81.116791
125.41432 -123.6748 110.3232
66.723701 -16.863125 53.485203
112.75684 -108.5092 98.373642
108.66421 -98.032021 93.609245
125.99548 -86.100311 112.14896
123.71989 -108.00201 110.36092
124.01266 -89.275421 110.48166
67.429825 -11.004854 53.746964
106.75813 -81.479561 93.46653
12.661486 -21.046144 -1.0899634
78.298538 98.854591 64.448761
114.29398 -107.31713 99.164925
112.09958 -68.300301 98.817657
76.583359 -33.235306 59.664673
124.54176 -110.41203 110.95338
78.295403 -40.468929 64.321037
69.874359 -24.908627 55.828621
128.09958 -74.632439 114.24923
8.5185795 -21.553583 -5.3267097
71.267174 -26.474974 57.506081
9.2503796 -22.211422 -4.7525926
130.02316 -91.217674 116.32917
13.661587 -23.936367 -0.48144722
13.120084 -20.622066 -0.22596836
125.49517 -105.14154 112.42539
67.18924 -19.93177 53.356464
123.87518 -104.76096 110.33652
76.458969 -6.9135594 62.469345
68.877098 -23.935249 54.118111
127.78384 -114.38392 112.6699
109.58011 -64.656403 95.944717
69.08181 -8.4388542 54.041405
126.14739 -102.25299 112.9015
129.75832 -84.129501 116.01653
113.84324 -109.18784 98.949501
100.31352 -54.585976 86.288025
106.10047 -61.071556 92.152534
116.26668 116.59613 100.66264
102.17175 119.90491 87.41272
117.49198 -72.010147 103.50283
121.97663 -105.81624 107.6639
99.232117 119.08252 84.171127
123.61606 26.8239 109.73625
112.17192 -79.613503 98.009918
15.510523 -20.788136 1.1842766
54.326244 -16.50214 38.361401
12.20686 -16.431538 -2.1561923
128.90785 -87.839104 114.83011
13.81064 -16.428988 -0.93767309
15.830746 -24.830843 0.76587152
107.15677 -83.014946 92.77594
127.23777 -97.022614 113.00037
127.4306 -77.716164 113.25683
77.844948 10.685666 62.138847
93.628983 117.11898 76.313156
80.345795 104.12418 65.387894
105.96523 120.16393 90.434158
124.34891 -94.605515 109.9442
125.27352 -108.20304 110.89165
112.4622 -100.97921 96.971809
122.91649 -76.652046 108.54584
112.93259 -102.23662 97.149765
60.861115 -20.034594 46.01162
106.94604 -93.141594 92.056984
46.27079 -16.73344 32.055664
127.35018 -54.978333 111.18566
127.40895 -88.265152 112.95557
83.251671 88.154114 68.88694
59.020615 -17.645342 44.102493
127.54255 -83.126007 113.16216
122.73492 -102.88255 107.55494
10.948581 -33.435684 -6.8803263
84.675804 -44.569984 69.8209
73.363106 -29.786301 58.92738
123.9221 -99.112885 109.05648
58.531517 -11.364992 42.740746
125.23466 -43.536068 105.7463
124.32613 3.21381 109.77995
46.662701 -19.164858 32.198536
10.482186 -32.013275 -5.6387415
126.26459 -8.3317699 111.64572
118.89165 -82.604706 103.52808
122.82922 -87.541138 106.82767
119.01968 -106.10751 103.35969
50.17025 -17.234112 35.567474
124.1106 -74.199432 109.16382
111.28925 -63.295246 95.708603
126.6466 -118.77308 111.00224
9.5462141 -31.86157 -4.5500221
114.15488 -107.76485 97.667923
125.59086 -24.796532 109.60686
48.874775 -18.359116 34.03384
127.97644 -112.75393 111.32547
126.25024 -70.290916 111.01292
72.288635 -7.233561 57.267166
65.813568 -23.103384 50.488167
107.27623 -89.74424 91.854538
127.04062 106.2918 109.07677
9.1501894 -18.109097 -5.8178053
50.118114 -20.577641 34.839146
124.82854 33.442863 109.57674
126.91048 -123.16407 110.08054
120.27941 -102.56499 105.11437
88.417328 78.802933 73.255188
15.014074 -25.792921 -0.79735231
108.5413 -85.669037 93.088188
43.836479 -18.200186 28.274193
126.15353 -113.49992 107.75396
54.305832 -13.887793 38.210739
67.554382 -9.8992462 52.092037
113.22182 -82.644279 97.493538
16.522861 -16.756195 0.26646709
123.69746 14.176274 108.37321
13.263506 -29.057486 -7.9706588
77.605927 100.73804 61.816517
124.66912 -70.41687 109.19431
9.4262838 -18.981037 -6.7104754
104.95175 -57.92284 89.548492
50.222897 -14.551085 35.107655
116.18359 -104.11391 100.2193
43.531616 -15.3631 28.08812
76.83136 98.30069 60.203781
97.612267 -49.562363 79.366753
90.764458 74.517807 74.444756
99.33149 -50.976711 82.486855
119.08194 -104.72067 102.66608
125.6167 -38.132053 108.90242
127.42622 -121.06865 110.10618
48.04063 -13.130039 32.520199
93.369568 -49.195 77.787048
113.13366 -63.041611 96.88549
117.40102 -102.47363 100.87312
125.20734 -66.532455 109.66415
45.975513 -11.691366 29.993822
117.20216 -107.99025 100.24208
122.14016 -94.461258 106.05025
126.38719 -115.28826 109.51988
71.935631 -28.870098 54.468781
125.76582 -113.66929 108.20973
132.12166 94.006599 113.72729
100.81175 -51.99651 84.238739
24.781906 -14.565041 8.9847689
54.114716 -20.224249 37.618423
125.06683 -31.159105 107.77451
125.4714 -47.450764 107.02906
76.524368 -30.766903 57.877563
125.7892 -4.4337401 109.97575
22.711641 -16.214275 6.7729545
125.36918 -22.457197 107.47497
49.408573 -21.303034 32.537785
10.130921 -19.89456 -5.7228928
79.129845 94.13488 63.226982
126.89262 -112.87782 108.70397
56.630699 -20.482845 40.342216
90.327827 -47.665649 74.277168
24.045076 -12.189268 7.8517742
25.609673 -17.444834 9.218586
127.41209 -57.288696 110.93279
73.186653 -28.624823 56.972313
21.722097 -13.508971 5.4926987
103.27267 -53.909569 86.776543
116.48651 -100.26653 99.753326
91.459763 66.58606 70.032486
83.301918 108.76891 66.217949
19.073063 -19.820797 2.4901323
129.32411 58.505432 111.69466
113.69521 -88.773628 96.790352
113.75998 -103.13234 97.521957
126.25021 42.48851 109.94892
83.18293 -42.410316 66.352409
116.56106 -103.77677 99.340965
67.627708 -25.408823 51.03347
12.667439 -14.300534 -4.1924672
60.88562 -23.22139 43.978691
113.71486 -93.818771 96.832047
76.501221 96.342232 59.970001
78.480026 104.59087 61.24184
119.36388 -87.306145 102.45468
21.157719 -18.298161 4.1907816
128.21068 -116.7067 109.88968
87.928421 62.473347 70.363037
47.209457 -9.6154594 29.701332
127.3465 -126.59695 109.7745
47.964355 -9.1103973 30.435951
50.159409 -9.5277815 32.480698
80.07843 3.3510244 62.221043
87.833344 113.22 71.182251
118.88255 -92.211662 101.68002
80.513153 -39.788799 63.81723
106.30894 -56.445351 89.648254
56.516621 -9.2185011 38.039043
28.024105 -15.900791 10.911289
41.171654 -14.857674 23.925339
80.720665 105.75333 63.62273
68.565857 -8.9169464 50.876587
21.331791 -14.908239 3.7447577
79.07093 21.509949 61.068352
53.423672 -10.574651 36.232357
19.606709 -23.276825 1.7330656
23.765476 -18.03916 6.732173
14.074479 -14.049781 -3.5900145
41.802639 -17.85191 24.295719
125.47141 -57.509392 107.30001
118.29943 -62.443455 100.71261
14.384677 113.59826 -2.6407957
19.615009 -16.193161 1.8674803
115.8308 -106.71214 98.347672
117.69714 -104.39596 100.22498
125.93848 -12.738726 107.33963
115.57307 -105.74841 97.6437
83.31041 -5.6862717 62.007782
125.05502 -62.516602 108.44736
17.313627 -27.211378 -1.9507947
111.92603 118.77085 94.517448
11.168794 111.32919 -6.4832525
121.67959 -61.93272 104.28924
115.99664 -107.88812 99.006218
16.781321 111.93239 -0.69229126
28.354454 -17.430712 10.801975
19.449532 -26.065138 0.15352535
38.229881 -16.586666 20.606789
21.440882 -11.647243 4.1485214
15.906241 -15.179102 -2.0767336
15.013359 110.06336 -2.6625366
21.652458 -20.559631 3.7066765
103.97732 119.47868 85.926292
85.246422 85.067581 66.825645
17.664417 114.82533 -0.38580418
79.109772 -6.4493685 61.765884
10.631302 -20.093489 -6.5567079
117.79054 -58.22414 98.70079
27.201204 -11.512089 8.4736881
73.732941 98.603645 55.911392
125.48112 -18.906134 106.75812
51.373192 -22.225462 33.342773
83.26725 52.018028 65.45739
36.284294 -14.632604 18.393919
12.454511 -34.167637 -7.4027529
78.870132 -35.026775 60.82634
34.391197 -17.964048 16.171642
30.146912 -14.744543 12.410106
75.599602 95.07679 57.800957
23.401344 -10.068411 5.2974157
55.411255 -22.713215 36.461647
67.770515 -26.348021 49.574959
12.120109 -15.545473 -6.2390738
43.854088 -10.004751 24.501122
60.00639 -24.454802 40.910458
47.211418 -20.614183 31.215477
18.436903 -15.623065 -0.41652107
48.623783 -21.899124 28.669338
82.274284 89.405785 63.430279
18.733829 109.00381 -0.0052032471
12.81635 111.77701 -5.6585226
79.010262 92.822044 59.92234
82.810699 -38.350815 63.353394
79.549149 105.61076 61.10054
71.527962 -7.2208948 53.123642
82.335602 47.743839 63.859303
127.0601 -119.98457 107.76166
70.275475 -8.5323086 49.521828
79.617279 29.678907 61.320984
30.643785 -18.895409 11.188742
38.070595 -19.191803 18.446114
13.151216 -14.213115 -5.3002768
17.247288 106.39227 -2.7338834
85.782394 -43.11079 65.125443
70.229218 99.491333 50.99176
19.24622 108.46212 0.85499096
17.450003 114.98213 -1.489862
42.755814 -19.743031 23.031975
17.273937 113.85465 -1.8423491
23.7955 -19.781292 4.9323883
27.681606 -19.1507 8.8986731
87.244392 -45.476898 68.546791
125.82077 -4.3743205 104.71352
81.416962 42.680946 62.638855
30.923843 -12.162348 11.45533
133.30446 89.173653 114.05396
80.838112 38.202896 62.004951
125.53568 6.7822571 101.97589
74.453064 104.68823 54.059509
124.63237 21.5564 105.81372
45.973072 -20.659412 25.859715
40.904167 -10.514531 21.173237
113.72023 -53.660583 93.06163
21.774313 112.28623 2.4202309
109.6066 118.81602 87.231934
125.34781 0.022146391 106.19408
130.91791 61.884201 111.91386
68.657684 103.31301 48.887131
22.302177 -10.006983 3.2432318
79.970955 -31.32509 58.144905
82.952126 108.96041 63.570484
124.34998 -36.955444 103.9792
118.32034 -51.842735 96.442238
21.431124 -11.855663 2.16539
98.150169 118.527 78.978661
63.504856 -8.0514355 43.107243
123.37122 111.43649 101.51611
119.05343 115.71337 97.152412
21.157642 -14.752907 0.30548859
119.96801 -49.416149 97.37542
75.306198 -30.266279 54.75124
77.319511 92.025795 57.027355
36.619762 -11.883225 16.945858
54.427284 -23.113625 32.865379
27.893368 -9.6259832 8.2540197
76.278946 -30.049351 56.707001
17.521051 105.45261 -2.2728462
74.146095 94.339111 54.480007
88.080444 113.69674 68.500198
21.86422 -13.554777 1.3460684
134.29945 79.849998 114.68841
24.750595 -8.5379009 4.8383389
78.642708 17.474205 61.32066
72.294846 103.22188 51.540451
90.656723 75.909256 71.356628
108.34093 -51.26918 88.344414
11.637317 110.40796 -11.648116
46.665993 -9.2121239 25.352411
49.491985 -8.2544527 29.55946
57.273514 -8.4280128 37.476227
81.403572 9.007822 61.657787
18.538128 -27.315817 -2.8479667
21.387104 112.2078 1.792676
106.86102 -49.409203 85.666405
11.830832 110.33308 -9.718832
20.513798 115.82864 0.64831829
93.322639 -47.738991 72.70472
14.137886 -14.798211 -6.6990643
125.36749 26.6124 105.29357
76.124695 107.17426 55.330704
29.344822 100.48833 9.3580542
36.47044 -9.3123693 15.933121
11.027641 110.13065 -9.4737854
56.736492 111.83513 36.553577
134.35962 71.988197 114.15023
102.63503 -48.253231 80.517197
23.666534 110.79393 2.5798159
