# .PCD v0.7 - Point Cloud Data file format
VERSION 0.7
FIELDS x y z
SIZE 4 4 4
TYPE F F F
COUNT 1 1 1
WIDTH 1502
HEIGHT 1
VIEWPOINT 0 0 0 1 0 0 0
POINTS 1502
DATA ascii
14.825493 -37.179615 -103.03461
12.036724 -34.014957 -15.425067
14.132992 -3.9168346 -102.59607
14.869988 69.738213 -115.66895
15.222066 -31.838463 -98.212547
15.380886 54.4324 -167.37
15.369609 -48.115131 -124.58575
14.747571 -40.752991 -83.178246
15.355092 -7.0357099 -90.122803
13.915511 -50.163345 -133.04984
15.35259 111.85335 -106.40257
14.943319 110.01412 -67.147942
13.800948 101.73844 0.53745556
14.715637 116.90901 -9.2075157
14.706071 48.45248 -165.76755
14.359824 -23.238911 -74.672638
14.741289 109.07659 -63.637173
14.708934 -39.245068 -56.453064
15.120386 114.08794 -3.0687041
14.830074 -37.992046 -33.776489
15.120832 108.01111 -69.898003
14.42395 -17.520853 -78.441971
14.87792 107.20217 -77.812653
14.452377 102.08233 -88.042961
14.126895 95.874275 -87.571892
14.595294 117.9039 -121.92649
14.139486 -51.705036 -62.772511
14.578385 112.13618 -21.671236
14.193485 -13.511097 -80.067322
13.424063 -56.488308 -162.6217
14.57074 110.44559 -11.578448
13.580181 -44.303242 -163.75175
14.217463 110.48567 -64.941795
14.302639 114.91798 -22.717707
14.766278 114.92555 -2.3087773
13.351869 -19.808605 -163.93129
14.455535 -48.048908 -118.51345
14.868986 31.5702 -163.024
14.581292 105.22186 -90.866013
14.805591 109.89735 -58.104511
15.001808 117.94093 -7.2749591
14.085584 112.5686 -25.085005
14.358557 -39.228325 -38.873428
14.06586 -10.221004 -82.161278
13.919859 -35.336166 -88.190323
14.640491 -43.128201 -106.73
14.098223 106.23392 -7.8963785
13.748145 107.87055 -9.9576387
14.551707 -46.598911 -22.316574
14.618511 -49.273529 -31.453381
14.095078 101.22464 -81.490181
13.490703 -39.353195 -62.238281
14.355517 -39.566582 -49.522339
13.911572 73.462654 -116.28989
13.859592 -33.892376 -68.176575
14.243658 -31.183443 -90.925018
13.92353 115.73161 -3.2511127
14.224275 115.18519 -113.74542
14.157532 9.80021 -162.40404
13.822424 -51.906929 -66.993294
13.828328 -46.209412 -75.806625
14.371085 -50.040031 -160.81033
14.364164 80.485657 -110.31432
13.873907 119.28153 -139.06194
14.318185 65.978699 -174.065
13.707521 2.2135692 -163.37848
13.487596 111.7513 -9.7348299
14.290185 71.988197 -175.72301
13.7595 -37.139462 -102.14895
12.443011 -36.187538 -23.61578
13.096069 93.301613 -98.083069
13.162245 -21.022926 -76.723061
13.374979 111.25533 -2.4254427
14.194386 26.6124 -163.10201
14.251434 -49.343735 -53.094227
13.246434 -8.2068558 -164.85704
13.480906 -48.33424 -38.180012
13.210237 -32.37999 -96.439278
13.881928 102.0249 -83.996101
16.118052 8.2752428 -102.89048
11.600252 -42.110603 -6.6378908
11.496879 -24.256773 -166.03255
12.965158 -32.078144 -19.849123
13.77726 -41.636131 -47.928978
13.715115 -41.587059 -39.305172
13.584695 -39.495277 -35.226326
13.486792 -29.913038 -93.462692
12.549667 16.755718 -99.209221
13.562372 -56.358181 -146.02615
12.201314 -34.482433 -164.78578
13.701935 114.98131 -7.1826448
13.867085 79.849998 -176.061
13.626021 111.85258 -107.37853
13.137383 -48.712639 -34.918568
13.062848 93.551918 -94.923676
13.296004 -40.588734 -57.851265
13.298142 108.20012 -102.94026
12.814822 105.16457 -99.677948
13.778769 -30.4485 -94.803337
13.69285 -119.75474 -166.85487
14.443871 -40.06361 -29.183956
13.007646 -38.972004 -31.783546
13.371563 100.51889 -91.861115
13.561592 -117.11785 -165.67361
12.984139 105.36128 -0.45996776
13.457192 115.1201 -7.8023348
11.09026 -34.089378 -15.714849
13.062727 -113.56731 -165.43039
13.579385 86.713097 -175.27
11.717319 -47.977905 -72.960556
13.185367 109.50684 -7.7378368
12.982468 -49.424522 -56.961174
13.220482 -48.624203 -52.673397
12.863435 -112.84612 -166.50166
13.40404 -49.133118 -123.88808
12.794287 96.10778 -91.251785
12.177272 -26.470301 -73.458199
12.335716 -44.415203 -53.785824
12.501628 -40.787548 -26.454733
13.437884 61.884201 -171.70799
12.939285 110.06973 -8.1707153
12.644919 -61.314373 -156.19672
12.413377 103.68129 0.24825536
12.868753 -38.603493 -83.220253
12.989472 -46.210476 -24.330338
13.233506 112.24228 -1.7679805
12.762292 119.46859 -134.39952
13.089625 -38.778511 -25.239574
13.197903 -41.408203 -35.630959
12.630806 -52.703907 -135.97348
11.349066 90.009712 -104.54465
13.306786 21.5564 -162.95
12.417621 -47.775414 -29.747337
13.619739 41.435093 -101.69402
13.428987 91.594093 -174.45216
13.006992 28.895021 -99.613655
12.519078 -45.434067 -19.042753
13.01797 -45.521557 -110.27255
12.45736 -126.50471 -167.63832
12.17602 108.58415 -163.92551
10.773127 -32.211155 -17.125414
12.415468 -113.40441 -168.52493
12.517913 -44.372562 -48.443321
12.207845 -42.194538 -105.63761
12.966935 47.501907 -103.28374
12.269333 110.62766 -4.3132453
12.427511 112.01022 -1.8167707
11.457009 -29.029995 -90.862617
12.78495 98.739235 -90.242821
12.954098 -6.9644265 -89.372673
11.533098 -42.852798 -6.072402
12.05901 -34.221931 -23.159575
12.924092 -8.5929203 -84.800102
11.713946 -50.180386 -61.541397
12.629783 21.653881 -99.044678
11.835422 -56.825584 -168.07439
12.467173 85.711472 -107.4813
12.392675 -43.787594 -76.231575
12.334399 -42.007565 -28.943474
12.502235 -51.03252 -130.84982
12.159729 117.00349 -120.02427
11.793668 -113.92143 -169.51154
11.431169 -41.501553 -62.811947
12.718021 52.487808 -105.4636
12.362941 -46.405308 -45.170155
12.472631 -105.70279 -150.68681
12.115382 -47.104095 -56.53413
12.353979 -40.703629 -78.91275
12.443694 -39.406887 -63.580082
12.06627 104.42318 -98.822876
11.996712 -123.35358 -167.56308
11.937505 -39.42886 -101.928
11.809267 106.67519 -1.1869832
12.353727 58.642723 -170.52162
12.027424 -43.761093 -15.556009
12.452528 -44.057655 -38.038258
12.072006 -46.216339 -38.019386
12.009645 -115.45659 -166.84673
11.884971 96.344269 -95.855621
12.133883 -60.206032 -146.88422
12.405357 -105.75995 -153.51181
12.125148 -31.286844 -95.15065
10.484577 -6.6872969 -98.715897
11.305043 119.02885 -129.23689
11.737751 -18.651415 -79.019585
11.213535 102.06388 -99.230972
12.286637 -107.12102 -151.11598
11.585814 -44.39135 -16.514841
11.674341 56.253105 -107.71909
11.931811 -35.917068 -68.621338
11.424981 -107.15945 -148.96278
11.443353 9.9106274 -164.11421
11.962679 118.85549 -146.08553
11.772989 -101.80934 -153.88132
12.201184 102.076 -170.96899
11.897827 -44.487736 -27.166788
11.413744 -63.584721 -165.55405
12.18464 -91.011658 -156.39618
11.826928 -108.09206 -152.043
11.991844 114.56959 -114.36473
12.328671 -121.06805 -167.93307
12.046358 -91.786751 -149.1871
11.686745 -28.90707 -93.067245
11.642156 -108.68719 -153.38129
10.429658 -8.4338789 -168.14423
12.104692 -103.70634 -152.42592
10.592701 -114.46898 -170.03845
9.5330849 101.09435 -172.20303
12.098067 -0.9911347 -165.13922
11.974875 -86.994705 -155.64485
11.38607 -65.988083 -153.34091
11.833288 -104.48276 -155.912
12.180984 62.497608 -111.90821
11.866681 -47.560009 -34.175957
11.336972 -44.393738 -34.701912
11.384686 -53.719296 -168.60225
11.42113 -42.176811 -33.390564
11.388978 -11.878015 -81.586525
11.824229 -103.1477 -150.57132
11.419601 -39.057144 -23.86516
10.768543 98.565735 -99.163948
11.738214 -44.677219 -57.46191
11.521552 -42.866024 -23.041046
11.783347 2.034935 -100.0385
11.031782 120.14637 -138.85034
11.696341 -50.763 -67.633369
10.811467 104.25388 -102.65385
11.1092 -59.06366 -139.57294
10.704756 -122.7501 -167.51151
9.5539951 109.91287 -163.05672
11.091104 -45.385693 -30.686752
11.109097 -118.84885 -168.03983
12.275146 -39.218285 -65.367737
10.819043 -102.78776 -158.28311
11.564533 -32.654907 -21.12077
11.057652 -91.29213 -141.54715
11.620159 -54.03149 -134.34889
11.441092 116.50773 -153.44415
11.557024 51.309185 -169.17746
11.635586 16.6626 -163.66
11.57585 -85.326622 -148.32681
10.460107 117.90147 -124.83135
11.685075 42.799538 -166.9994
10.556027 -44.323971 -108.81694
11.502845 -95.262817 -160.43054
8.9937525 70.054817 -115.39693
11.696421 -40.642311 -31.471668
10.65499 -123.6374 -166.65889
10.246557 -43.061504 -18.015011
11.603847 -66.641197 -160.89293
11.551597 -40.442158 -75.565651
11.712743 -32.426472 -21.908442
11.023686 -29.536865 -73.412155
11.301029 -104.0484 -153.01927
10.820324 110.2002 -109.11617
10.84491 -70.206322 -167.52063
11.186232 -45.992176 -34.098694
11.134491 -22.658752 -77.419052
10.637444 80.442047 -113.09147
11.569839 -100.80601 -150.7769
10.823866 -104.08506 -161.80647
10.818985 -107.1028 -151.13756
11.286234 -48.978844 -69.96521
11.256665 -32.581234 -15.647758
9.8812008 -107.59875 -150.11418
11.319189 -47.811901 -116.75
11.198978 -38.044262 -73.209267
11.042076 94.640533 -100.50834
7.3762784 105.6422 -170.18567
11.42833 -36.807598 -70.266754
11.092704 -106.3317 -156.81613
10.948312 -85.50312 -142.76746
10.226677 -107.9258 -148.91319
10.668279 -27.003178 -91.464828
11.312522 -86.961662 -162.21608
10.862814 -82.318573 -156.58574
9.9471846 -102.17645 -145.51947
11.016099 -62.492378 -145.1066
10.546468 -9.6399164 -84.442711
10.613737 -68.398834 -167.73734
9.7886133 -109.37589 -165.46669
11.167686 36.326599 -166.04401
10.55281 -98.816048 -164.45616
10.182888 -104.18633 -147.97356
10.241975 -109.18924 -149.84952
11.071491 -51.536736 -128.70224
10.355693 -103.40791 -150.3517
9.2907171 -14.162935 -169.12689
10.547987 -33.091328 -82.297958
10.395606 -42.272018 -169.08522
10.383739 119.93217 -134.3909
8.1816149 76.198174 -117.1368
10.306176 -49.283138 -66.492004
10.78649 -50.032688 -124.02805
11.144868 -41.98262 -65.282242
10.313342 -98.100548 -141.90701
8.8520737 79.645981 -114.75108
10.209589 -41.935783 -16.353729
9.6240864 -41.717812 -7.285799
11.259823 -7.3154049 -88.922913
10.867008 -48.00774 -60.783836
10.628868 -81.961075 -145.0687
11.002483 10.783719 -98.902596
10.376826 -75.72525 -164.98912
10.755069 -45.392578 -60.941391
10.069058 -105.88087 -161.8423
10.074049 -30.394426 -80.264954
10.690675 -42.913223 -104.57825
10.202118 -36.391499 -22.091013
10.694093 -41.079762 -67.623482
10.465059 -90.551147 -140.08162
10.441292 -108.6303 -167.04773
9.8434448 -35.657513 -13.962323
10.5172 -45.369827 -72.305023
10.246573 -42.517109 -70.429413
10.564411 -47.075008 -70.371948
10.623086 31.6056 -165.52901
10.22229 -84.00042 -161.94748
7.0944676 108.83443 -166.41451
10.311888 -86.940071 -140.06593
10.396732 -44.226795 -68.934647
9.9620371 -106.78067 -157.73471
10.408519 -34.763462 -20.224861
9.9492359 114.44026 -116.78963
9.1031828 -13.021781 -82.942764
10.030917 -103.27366 -164.7368
9.5087576 -110.242 -150.61176
10.380787 -68.085503 -151.478
9.9720535 -35.013577 -20.865074
8.0125513 -46.117813 -114.09627
9.8822536 -72.78624 -157.35239
9.459672 -33.266556 -169.9422
9.5370436 -110.38715 -166.59149
10.285686 3.21381 -165.53799
10.111443 -84.00103 -170.85925
10.13381 -55.12569 -132.93138
10.212783 -87.709976 -170.19357
9.8695078 -66.501289 -171.96248
10.037157 -79.658028 -148.11682
9.9955225 -41.477684 -20.240757
9.6829729 -19.604649 -81.092827
9.5561323 -108.59177 -169.52168
9.9789877 -77.893669 -170.74574
10.083502 -29.668213 -93.619194
8.8239632 -118.0252 -167.68384
10.168591 -37.167599 -98.625099
10.112468 -98.93383 -166.32648
10.197055 -76.803764 -164.04875
10.001777 -89.13588 -172.65787
9.1788149 86.515083 -109.7371
10.158851 -96.050171 -165.78677
9.982501 -98.196869 -169.83389
9.2362385 111.79201 -113.17854
9.2918911 -115.2887 -170.06644
9.9984598 -46.768692 -65.372665
9.415554 -39.582119 -9.3726187
9.7823353 -25.188974 -87.989929
9.5863276 -38.304913 -18.398203
8.5808001 -39.734642 -8.6656065
8.0321598 -96.720757 -132.87117
8.0311079 -110.38277 -167.23299
9.7754135 -85.194443 -173.81197
9.0465956 -24.410309 -80.103416
9.0646992 95.307922 -103.15765
9.8334732 -86.150909 -168.39914
9.6298437 -64.27356 -144.63057
9.4955769 -89.196648 -165.88722
9.707284 -34.530087 -13.870484
7.8243608 -116.12872 -169.37123
7.1011357 -49.824528 -176.7534
8.1638746 27.061852 -165.63072
9.4566069 -23.803473 -91.199379
9.5928612 -107.22946 -165.52399
9.6011047 -59.502434 -137.96828
9.6216183 -91.149574 -174.37068
9.3138571 -102.7149 -169.00645
9.5332327 -81.844704 -141.25061
8.8674936 -106.90815 -161.43529
9.7303162 -108.98401 -155.91975
7.8131084 -118.96038 -166.3604
8.5615692 -107.11214 -147.54173
9.4176178 -80.855614 -163.53571
8.1910944 -23.51362 -170.50914
9.4665213 -25.99107 -92.354385
8.3686352 -36.770164 -11.731213
9.2215166 -76.163315 -159.31104
9.4391527 -104.97726 -167.4706
9.4461317 -40.787601 -100.762
9.17694 -76.470528 -172.92839
9.3161831 -80.073418 -156.95003
7.7009792 -34.404408 -95.679184
9.3917265 -68.300301 -149.14101
9.0500736 -40.840214 -11.860629
8.0448771 98.354935 -103.5932
8.8619566 -38.298183 -15.022599
9.0202618 -21.538481 -86.178185
8.8507442 -96.664207 -174.32961
9.218503 -27.750193 -93.430969
8.8271933 1.9761013 -97.834381
8.8865528 -89.127068 -137.02332
8.3109531 -83.680603 -163.84857
8.9765263 -34.538536 -14.58853
9.2610722 -8.91008 -87.533302
8.3854551 -110.34988 -154.39175
8.296545 -20.237984 -85.266907
8.5541086 -120.12865 -167.50626
8.4070749 91.361153 -107.69594
8.5648546 100.95986 -103.53255
7.6188936 -105.56613 -148.18333
8.1030645 -109.89899 -170.44818
7.4159064 -56.05164 -176.75928
7.8816252 -100.28418 -137.84734
8.1020031 -92.660706 -133.735
8.9184475 -105.48136 -147.48833
9.0913143 -63.766602 -174.395
9.0022488 -78.793663 -151.31746
8.8375664 -84.851265 -164.64241
9.0464458 113.056 -159.13699
8.4307261 -51.206997 -124.62653
7.6516738 -101.62888 -173.97615
8.7575932 -108.98223 -165.51236
8.9662313 -4.77244 -98.355202
8.5915031 -74.948769 -173.4944
8.7710886 -48.339382 -118.73929
7.4234076 -74.881134 -177.26746
8.741127 -90.119034 -176.73013
8.7487373 -78.925484 -147.24181
8.7553358 -19.571232 -83.044067
8.7601852 16.8291 -164.907
8.7555456 -1.11971 -168.42101
8.6555424 -8.0191402 -91.823898
6.4485931 21.768587 -165.38402
8.1883736 9.8408508 -165.60648
8.2138023 -82.277382 -161.5629
8.5620899 -82.499054 -140.41362
7.9008222 -79.666565 -144.11743
8.4420824 -84.944427 -165.30499
7.7889004 -109.53168 -160.98784
8.541049 41.630646 -100.06315
8.2612743 30.048319 -97.698669
8.2371902 -55.094875 -131.39117
7.9126315 -15.642577 -84.177986
7.3995299 -73.020729 -152.71507
7.5494761 -79.061951 -155.8631
8.1040049 -82.731972 -176.49768
7.9437523 -109.76569 -163.73148
8.0912027 47.978786 -102.12038
8.0211239 -27.763847 -92.823654
7.7416468 -112.52232 -165.836
7.2499781 -20.688311 -91.927345
8.2403145 -5.63661 -169.923
7.8910418 20.713053 -96.697205
8.2089348 73.349998 -177.308
6.9528031 -111.46132 -167.10803
7.8520041 -86.540291 -137.72639
7.7109823 -60.329243 -138.2059
8.1345549 63.087299 -174.45399
7.3947482 -88.479485 -178.97681
8.1116152 67.623398 -176.03999
6.8570242 -31.864502 -173.21342
7.173367 -106.79467 -144.62566
6.2376328 52.250362 -104.25127
7.4473042 -17.653784 -85.504265
7.4099884 -10.022924 -89.64975
7.9880848 80.744003 -177.063
5.7970228 63.808342 -112.51422
8.1282053 -65.459061 -144.99559
8.1120777 58.686417 -172.69693
7.4274836 107.92901 -110.12766
7.0783587 -110.95391 -170.31169
6.3132677 119.65402 -134.24326
6.4703131 120.16562 -139.06589
7.485805 43.160358 -169.45547
6.4782076 118.82969 -130.13123
7.730835 87.142097 -176.14799
7.5317101 -25.340836 -93.540596
7.4457221 -78.420868 -148.86603
7.155303 -117.64382 -167.3277
7.2018123 -115.68115 -165.88879
7.1911201 74.785072 -116.78101
6.1311302 -44.963257 -106.38703
6.848402 -71.398277 -178.71074
7.037343 -111.01266 -152.67171
6.5163202 119.35787 -145.79291
7.0411696 -108.32171 -146.42616
7.5882916 -8.0474501 -96.915604
6.8928185 -9.4625635 -171.27762
7.3815618 -19.55834 -87.48243
6.9071078 -83.276833 -159.92395
8.0397749 92.536804 -175.00456
7.4556403 94.023499 -106.622
6.7018738 -94.084656 -126.44556
4.7977285 117.0094 -126.31274
7.3290935 -107.11275 -171.85188
7.067637 -89.453728 -131.74028
6.9972825 -92.473534 -179.3513
7.1630702 -76.503716 -155.94421
7.2173219 -63.45155 -140.68958
6.6211605 -41.684978 -99.877739
5.9058976 -87.131523 -131.306
7.2203765 -89.672203 -151.017
7.2055573 -90.351196 -145.05701
6.467453 -11.946525 -90.426079
7.1354766 116.957 -153.80701
7.1592259 34.096878 -167.40509
5.8451819 -111.76575 -161.46008
7.0858564 -92.319603 -150.65601
5.7085905 -86.870064 -180.18759
6.8804975 11.721904 -96.770355
6.6201506 -98.520149 -128.35022
7.0367203 104.671 -107.669
5.6532078 -31.66861 -93.678261
5.1807737 -109.99178 -148.12968
6.9434977 -89.043404 -139.177
5.4880743 -112.29144 -164.45619
6.9248471 -88.4478 -144.739
5.4247808 -16.740641 -173.28566
6.51545 -97.534843 -178.37561
5.843924 -51.758984 -124.19334
4.7325773 -46.999535 -113.57341
6.4441457 -17.165651 -91.707268
5.6019602 -104.20789 -136.33875
6.3581653 -90.775589 -126.15395
6.8537292 -81.084732 -141.4507
5.3366561 -7.432724 -96.607277
4.7271032 -53.714909 -129.43867
6.2546673 -24.642122 -93.563904
4.2263517 -82.943489 -138.00981
6.5713224 -89.353424 -125.20671
2.9018836 -78.881081 -155.15579
6.611197 -92.831902 -144.867
6.0693417 -102.83302 -176.3943
6.1344161 -82.289131 -160.13371
6.3114591 -92.463303 -121.10337
6.2111945 111.96379 -162.10715
6.0547004 -113.11385 -166.10965
6.578671 -97.801979 -117.9885
6.3738127 -63.516285 -179.25418
5.9814806 -74.151459 -150.68198
6.0148897 -109.16106 -171.43224
5.5899606 -83.235023 -139.4035
4.6884995 -43.978905 -102.29251
5.831079 -90.090965 -116.12718
5.8126764 -88.374146 -127.11987
5.1693254 -88.753494 -117.75607
4.4908452 -78.576942 -154.77829
5.5170827 -88.052605 -135.1283
5.7140975 -11.192585 -96.378738
5.8555555 -57.830608 -179.36699
5.7553177 -88.490562 -118.71828
5.9195271 -20.950872 -94.945709
5.6328864 -82.09166 -157.56026
6.8756452 -90.718658 -137.96767
5.7561049 -112.01247 -168.76434
5.656261 3.1674531 -96.377502
4.0845776 -22.533695 -174.64659
5.4446635 -86.80024 -138.6747
5.9860168 -87.759903 -150.836
5.4603481 -92.153198 -180.81461
6.1090517 -96.432663 -116.43096
5.6634693 -100.27946 -127.18709
5.6654544 -97.763367 -120.63537
4.5361385 -34.725094 -94.153152
5.04497 -86.065041 -144.23833
5.3343019 -94.273506 -116.79874
4.6879935 -89.821899 -182.99608
4.7955041 -71.346069 -181.80453
5.8051872 82.4916 -111.67973
2.5446234 -27.246044 -176.25993
5.8327632 100.88341 -106.90495
5.3444848 -100.59811 -118.52116
5.4020925 -16.117897 -94.193604
5.261117 -98.013779 -119.04411
5.7348552 1.17092 -169.491
5.2861648 -105.74091 -175.18109
5.6865754 -3.3903501 -171.093
5.9222264 -90.107483 -129.98157
4.3230939 -88.04982 -114.07955
4.9898248 -86.792831 -123.76098
5.605607 77.956764 -112.41631
5.0625787 -100.33739 -121.02919
2.9876056 -112.09143 -152.92072
5.5974698 81.410179 -114.31429
4.8794165 -101.42105 -178.77318
5.1051826 -89.026039 -119.189
5.9773936 -89.547104 -124.52171
4.6966896 -93.794487 -134.46301
5.1163774 -54.505486 -179.71014
5.2083955 108.84352 -168.53191
5.2054367 -65.211525 -138.96579
3.8066745 -84.273521 -119.705
5.2068496 -81.868858 -181.65793
4.4770508 -103.20393 -130.53738
5.3762479 -93.109001 -137.99001
4.9932313 -90.52626 -122.28456
5.0459437 -87.711449 -127.05624
3.9526169 -48.424133 -117.90844
5.3218012 -14.4482 -96.553497
2.0986407 104.01679 -172.62512
4.2510605 -34.047211 -175.98592
5.2700953 5.8414302 -167.62801
5.1932321 84.868233 -114.36111
5.1003366 80.425682 -116.09216
4.3160539 -88.416862 -115.42583
4.3033805 -87.214363 -115.54351
4.5412335 -86.098785 -131.11255
5.1867471 -98.523697 -117.13476
4.4781079 -92.074959 -127.9174
4.4579139 -80.550652 -143.84464
4.4763327 -85.658897 -149.0202
5.0764599 11.071496 -166.65817
4.6976533 -80.915733 -153.87323
5.0480418 -98.712906 -119.27874
4.9787059 17.302601 -165.905
4.6886783 -96.251625 -114.19434
4.9582305 80.993599 -109.562
4.7288551 -87.399216 -120.96133
4.2569242 -96.776581 -120.20082
4.7773032 -112.39982 -157.90179
4.4562836 -110.55983 -170.13278
4.6439304 -94.40416 -113.72654
4.8692765 -94.733803 -150.743
4.6709604 -97.309441 -122.37791
4.8890686 111.42847 -164.70409
4.5089293 -101.23253 -117.54386
4.4127474 86.601418 -112.09415
4.8155904 78.115402 -110.001
4.2767386 -86.627457 -125.85
4.2306795 -74.428207 -147.61067
3.9765353 -112.15768 -166.9187
4.538084 -17.43339 -96.605156
4.0322042 -81.254875 -157.88354
4.4449425 -11.541276 -96.620529
3.1440008 -55.705864 -130.71114
4.6246567 117.034 -153.799
4.6064715 -41.323101 -99.520302
4.6017404 84.489799 -110.186
4.1543384 -90.073471 -115.11961
3.6826918 -102.40775 -122.19192
4.0967121 -92.45195 -112.06916
2.6943378 96.956772 -110.49271
4.328146 77.674156 -116.6239
3.1287906 89.715065 -113.52563
4.2558684 -37.946144 -97.418259
3.5646985 -6.2408748 -95.768082
3.1111743 -28.846767 -94.028625
4.0841503 -97.917511 -114.53019
3.2402716 111.42901 -117.36043
3.6338019 -80.265694 -183.57297
4.2235417 -86.86731 -118.09769
3.8510654 -96.988922 -117.29632
2.8617263 -110.8112 -148.65334
2.7370465 108.24888 -114.36929
3.6133089 -91.784698 -117.60314
4.1417475 -85.73288 -157.92615
2.9277594 92.18885 -112.83417
2.5551193 93.940826 -112.00185
2.6048362 -88.265907 -114.09396
4.1054554 75.322922 -113.1749
0.11996997 59.379368 -109.29313
4.2011766 -88.850899 -154.58701
3.6115024 -87.686081 -114.2455
3.9801223 -84.261093 -157.20267
4.1728673 -95.727798 -145.69
4.1457562 114.022 -159.789
4.1743236 36.585018 -98.122124
3.9924097 28.460764 -96.28299
3.824863 -87.182358 -157.59451
3.2389152 -86.40892 -134.54442
2.9011154 -36.986298 -95.782425
2.7012777 -113.34019 -163.39981
2.9438028 -96.345558 -112.98546
3.9769619 43.355778 -99.818146
3.6187317 -53.599483 -180.6031
3.7252667 21.52857 -95.422058
3.9387364 -83.8041 -154.99699
3.3183458 -97.871971 -182.19385
3.724678 59.690941 -174.42273
3.7902708 49.580402 -171.84082
3.1802807 -93.844246 -123.69191
3.5564888 47.863197 -101.43703
3.8029146 63.873402 -175.981
2.795532 -90.821503 -115.17805
1.6731311 -84.977097 -120.22102
3.276988 -64.99765 -182.23952
2.2382782 -44.870804 -105.84312
4.0313244 -65.337326 -138.08395
3.8700285 -78.890434 -151.18451
3.5370295 -89.773972 -183.99602
3.6255264 -85.52356 -140.12109
3.3237576 -50.364845 -121.7149
3.3907893 112.46223 -167.03336
0.53024304 74.342888 -178.45284
3.6046746 68.600998 -177.336
2.4825969 -24.745689 -95.739532
3.3778927 118.61671 -132.97871
3.6668117 81.557533 -177.49226
3.1082361 -95.284554 -136.77945
3.4812906 81.032898 -108.152
3.0000405 -81.173729 -156.08543
2.9461489 75.963837 -110.48759
3.1329632 32.060772 -167.88782
3.2730122 7.9555011 -95.932983
3.4049704 78.2873 -108.511
3.3280494 74.819641 -116.30345
2.5666714 -85.172684 -115.67531
3.3806171 -84.96701 -149.18594
3.2457125 -45.518818 -108.73071
2.868295 111.36997 -169.20398
2.1694589 -106.78702 -135.79663
2.7219441 -80.546837 -153.01152
2.1676254 94.192001 -175.15453
2.3895171 113.42551 -164.71072
3.2133105 85.050903 -108.666
3.087095 68.578125 -114.38123
2.1706488 -32.190895 -93.694366
2.7542276 119.18055 -139.70349
3.1020477 -86.543121 -185.0584
2.5241673 -86.699486 -115.54359
2.2855096 -87.513306 -113.42493
2.5097079 -83.205711 -155.69655
1.886603 -47.102936 -115.71826
2.2305555 112.64407 -163.37068
2.7328925 74.304497 -114.4784
2.7719378 -93.370567 -184.51012
1.7869673 -7.4049006 -95.560684
2.4595985 -78.050407 -149.42685
2.2383924 -87.824707 -113.13139
2.2479348 -92.575333 -111.25426
2.453876 -104.36486 -178.46524
1.9372841 -85.880989 -125.2813
1.0775263 -112.18256 -168.51376
2.8987603 103.874 -111.538
2.8973465 -89.864502 -155.32899
2.451581 64.865952 -112.7029
2.5881505 -108.09396 -174.43616
2.0983152 118.43542 -146.19766
1.9822857 -78.548592 -152.21695
1.4370685 -73.742828 -144.54817
-0.28177902 28.627728 -167.34288
2.7390404 87.179901 -110.414
2.4324937 -82.971046 -134.49857
1.0391816 -88.16375 -113.50806
3.0500641 -82.052315 -140.0197
2.6541696 -7.7862191 -173.78105
2.1113293 -100.17409 -114.94457
2.3891723 -83.213837 -120.37084
2.0086234 118.67863 -163.8495
2.1108124 -83.424889 -118.42912
2.7335572 1.6392919 -170.54549
1.9765676 119.67429 -165.00439
2.0658004 115.90343 -127.85054
2.5360348 -49.175285 -181.53366
2.4906878 -33.608315 -178.02878
1.2837254 -85.609955 -128.45494
2.3942828 -14.709939 -175.33397
2.205035 70.244644 -111.32117
2.3727102 7.3010182 -168.11253
2.3116293 -62.387138 -183.5351
1.4989991 114.4889 -168.72911
1.6020184 -92.776253 -115.70864
1.566497 -17.333094 -98.215599
2.3323166 117.139 -153.532
2.6046162 -85.761299 -124.19862
2.1826034 -21.106609 -175.9129
0.24001265 23.468853 -166.36449
1.2898734 -79.104485 -154.07935
1.0758481 -84.719551 -144.34781
1.6390485 89.558929 -114.23222
2.083081 -38.971745 -98.61438
1.5455106 -2.4100661 -95.3517
0.18167065 17.797186 -166.58469
2.2131596 -88.101173 -185.77428
-0.084694579 13.383365 -167.18294
-0.27158159 -90.360992 -113.63904
2.1008868 -102.26262 -118.19644
2.0735171 -99.836601 -182.08691
1.8731353 -74.587326 -184.95087
1.2030755 -108.05505 -139.87312
1.9218611 -43.5905 -102.919
1.6887002 -58.371555 -131.90022
0.39855275 114.7602 -158.54369
1.8973112 -41.532299 -100.567
1.1302956 71.464844 -110.69848
1.7556708 -95.794075 -128.87971
0.59443313 -65.937157 -137.30824
1.7258432 117.9573 -134.35593
1.2312397 66.464188 -109.67654
1.6623521 -94.078903 -117.29998
1.1096265 -79.224846 -151.26711
1.0030838 118.32864 -162.73218
1.0254669 113.39661 -169.51755
-0.084585898 -113.25481 -166.31184
1.3433386 -77.930603 -153.74255
0.24077789 -71.27681 -142.19981
0.15266143 90.019173 -114.75088
-0.032796234 112.77895 -161.89565
0.091133177 78.172539 -108.30937
1.0717406 75.158333 -110.95167
0.011777428 80.735168 -108.11449
1.4800826 -85.993668 -135.12589
1.1701804 85.072899 -108.614
0.63003093 157.61775 -145.7368
-0.47297108 -49.211246 -121.09763
0.68016964 -78.440796 -147.64619
0.37510875 87.006775 -110.17351
0.0080236755 -80.462776 -147.61057
-0.0099905999 -22.161852 -98.030678
0.20853443 -84.53756 -119.98643
-0.066971868 -24.744108 -97.270607
0.55805492 157.37155 -144.07188
-0.0087098153 116.34162 -153.56001
0.19592452 -85.299889 -116.89715
0.0091653289 115.67438 -131.44266
0.014589491 112.42333 -123.97684
0.044186149 92.750168 -114.30386
0.28858063 115.38596 -163.29834
-0.0017426697 107.83725 -117.35679
0.041093439 117.08681 -136.36441
0.0096717104 103.21179 -114.2679
-0.01467235 -39.542049 -100.43292
0.0098000253 117.36426 -141.0869
-2.4346507 -88.396309 -113.89166
-2.4245789 -109.23392 -143.97803
0.24545629 134.08182 -158.75656
-0.26433739 94.986053 -113.33217
-2.2648802 -85.841301 -115.00902
-0.0052403547 97.430855 -113.52264
-0.023833178 -29.359701 -95.023384
-0.24101384 -86.809769 -114.79364
-0.022718851 117.18337 -147.22351
0.044930037 -32.439232 -94.181679
0.040971879 66.223778 -110.97247
-2.1669374 -111.23087 -149.4559
-0.0011330202 -44.066883 -106.49678
-0.027119674 -42.140575 -102.64915
0.0080596162 -34.996342 -94.756126
-0.076982744 -85.144814 -124.15636
-0.02176919 -113.79333 -161.05527
0.0082119945 -38.147137 -97.859642
-0.069714062 -45.03442 -109.88856
-0.06247725 -91.079056 -114.69408
-0.7324366 -104.43464 -125.06223
-0.75945407 -113.76938 -163.57736
-0.069112547 -107.84866 -175.41663
0.74365908 -104.50742 -125.38248
-0.016285114 -102.56761 -180.65456
-2.2404566 -102.09213 -117.83773
-3.0071654 -100.80043 -115.87905
-1.7104863 -98.947197 -113.88981
0.026613483 -96.017693 -184.36385
-0.0045044892 -96.399391 -130.39354
0.11776326 -95.81234 -138.91435
-1.2687143e-05 -95.897697 -145.12399
-0.020545561 -94.879997 -118.16099
-1.3121109e-05 -95.166397 -150.088
-0.39303574 -93.389549 -115.54182
0.0032936221 -89.785927 -186.08205
-1.3654564e-05 -90.063599 -156.19
-3.1640213 -87.707962 -113.42793
-1.3902932e-05 -87.819504 -159.03101
-1.1466031 -85.632484 -128.34859
-1.3997785e-05 -85.397003 -160.116
-2.034636 -85.986031 -125.53264
0.058506504 -82.853996 -186.16719
-1.781969 -84.81926 -122.72929
-1.3056418e-05 -84.316101 -149.34801
-1.3893141e-05 -83.337196 -158.91901
-1.3602634e-05 -82.605904 -155.59599
-0.15117843 -81.627769 -142.40791
-0.97459251 -77.771835 -153.60114
-0.015610779 -63.503941 -184.37755
-0.39889982 -56.239418 -129.8793
-0.058489975 -53.045757 -127.02546
-0.003076595 -49.79348 -182.50415
0.018041113 -26.958431 -177.36696
-0.063122809 -16.67462 -176.28699
-0.53770137 -17.32168 -98.507645
1.3358616 -13.861976 -97.170967
-1.4297125 -7.7557259 -95.565529
0.011438189 -6.955986 -174.33955
-0.078876287 1.44841 -171.35008
0.070873544 7.3819895 -95.713158
-0.48233098 7.9479365 -168.33665
-0.047068596 21.485456 -95.036232
0.10546054 29.652914 -96.123138
0.16234355 41.863991 -99.223663
-0.032195535 51.248493 -172.46875
0.15190694 59.163094 -174.74062
-0.69732761 64.918663 -112.31207
-1.544332e-05 64.240402 -176.651
-0.73730904 66.600517 -109.27597
-1.5556971e-05 69.090797 -177.951
0.003721064 81.311493 -177.82632
-0.37573612 85.098793 -108.82339
2.3897455 107.72442 -171.14841
-2.0196769 108.51295 -170.98792
-2.1058118 113.57172 -164.61263
-0.47980547 120.1639 -166.21796
-0.2949928 157.20107 -143.96532
0.97809875 157.86409 -144.56494
-1.9944935 -107.26605 -137.07225
0.056603793 -82.858978 -133.59906
-0.40988308 118.75367 -162.29727
-0.38953874 158.13417 -145.57991
-2.0325034 -87.369278 -113.48236
-2.566026 118.62752 -135.17027
-1.1851939 -79.349586 -151.78801
-0.0013036028 -94.666481 -112.35942
-1.1199214 -92.426445 -111.18839
-1.643826 118.40324 -163.26776
-1.3296801 114.9691 -168.62447
-1.0448301 157.36264 -144.97691
-1.6346327 -79.355576 -154.4774
-0.7854411 74.548248 -111.32178
-1.6936656 -84.985573 -119.65866
-1.8616012 -85.783203 -116.95055
-2.1898036 87.177383 -110.13275
-1.0808029 -78.344803 -147.866
-2.7199793 -91.46656 -115.50345
-3.224977 -88.214378 -114.04184
-2.6448853 -85.768188 -124.34763
-3.1173065 -13.681365 -97.120117
-2.4060302 104.23901 -172.51881
-2.8537939 118.65286 -146.54539
-1.4902622 -70.984764 -142.33331
-0.31146297 -47.539692 -118.17358
-1.9923713 119.77029 -164.91011
-3.8062446 -52.851177 -127.88622
-2.0214167 -112.29785 -168.03256
-2.0798244 118.77654 -164.25081
-2.3155222 -83.483856 -120.79156
-2.2275703 -83.170799 -118.89323
-3.3275757 -111.97887 -152.69453
-2.1746151 69.783951 -111.17663
-2.5362639 119.05573 -139.45284
-1.6277099 -94.347404 -117.8886
-1.889253 89.278915 -114.10715
-2.9266543 -86.755775 -115.6993
-3.2808063 -78.813995 -151.64117
-2.594115 74.460968 -114.15566
-2.6782024 -108.15245 -174.33521
-2.5896246 64.943871 -112.85735
-1.6644595 -95.914116 -130.44528
-1.9349242 -64.415092 -136.37305
-1.8949929 66.193573 -110.99142
-3.5836811 -29.216892 -93.767731
-2.4869785 -104.82662 -178.02663
-2.7664387 117.81234 -131.26091
-1.9696549 -37.4039 -96.233536
-3.1735067 -32.183594 -93.6269
-1.8245792 -44.790699 -105.832
-2.1236296 -100.09735 -181.92267
-2.0190094 -84.234093 -185.72417
-3.0829709 -34.806004 -94.184982
-3.8079369 -41.39452 -99.608284
-1.9170839 114.894 -158.47
-3.474864 -44.090225 -102.59254
-2.0202389 -39.048939 -98.720505
-2.5127337 -82.933479 -134.78375
-3.1418569 112.3595 -168.18011
-4.8704004 63.737949 -112.41012
-2.7285292 -93.825722 -184.38879
-3.059854 -113.1718 -162.44612
-2.579916 -77.847748 -149.30379
-2.1493711 -89.679588 -185.57661
-3.1818779 -84.820335 -149.78241
-2.9510388 111.41927 -117.66214
-4.5610585 17.620173 -165.98296
-3.1526403 -85.153076 -142.14386
-2.2565937 96.355492 -111.16595
-2.0956509 -86.034172 -134.62727
-2.3836532 -58.654884 -183.04713
-3.1762266 -25.493959 -95.061905
-3.4600606 99.225029 -109.72974
-3.1371937 112.68886 -164.18985
-2.3232684 -26.002504 -176.14182
-2.4001105 114.97005 -125.42668
-2.444135 -17.128159 -175.58417
-2.3323433 117.139 -153.532
-3.4886985 -17.136913 -97.295509
-3.6996913 -83.641434 -155.29395
-3.127584 -96.296318 -113.16883
-2.8193841 -82.049545 -140.12086
-3.5819728 -48.289597 -117.70351
-2.5930972 -9.1586876 -174.22147
-2.4830525 -34.617771 -178.2907
-4.2471337 -90.125595 -115.52444
-2.5242662 -50.409828 -181.78665
-2.3545544 -0.40366197 -171.4801
-2.7298477 -80.495995 -152.91582
-2.6736238 108.20565 -114.30074
-2.6580477 92.129341 -113.2218
-2.9817863 113.89866 -166.55513
-3.164634 71.211143 -115.20555
-3.220557 7.7216778 -95.921036
-3.6496849 -92.485138 -111.66221
-3.6318007 -102.50484 -122.61671
-5.1765146 93.636276 -175.09479
-2.7109566 -78.912643 -155.07297
-1.910694 -70.328247 -184.5071
-3.0955045 -92.834999 -117.87363
-1.7591072 -105.48803 -130.41341
-4.5100832 -46.826553 -112.9022
-3.2025404 -81.205177 -156.87039
-3.7587273 -87.07885 -157.68019
-4.4519334 -110.80544 -169.66133
-3.2274582 -57.617046 -181.50583
-2.8973737 -89.864502 -155.32899
-3.8317654 103.57685 -110.41303
-5.0466189 -87.715652 -127.51959
-3.6954303 -78.736343 -183.42963
-4.384654 -86.989983 -135.05254
-3.2823136 75.25428 -116.36549
-2.9920049 75.979111 -110.49021
-3.0730689 -97.434761 -182.61635
-3.8429139 89.250694 -113.1991
-3.1867044 -94.633492 -130.6021
-3.0752325 112.88203 -162.29112
-3.9040074 -45.198929 -106.89031
-4.000401 -84.19677 -157.07794
-3.7112617 -87.551414 -114.37402
-3.2246299 -86.461296 -184.92242
-3.6584396 40.648708 -169.82762
-3.2133296 85.050903 -108.666
-4.1935215 -85.732353 -157.90942
-4.6729784 -88.406616 -117.57874
-4.3343906 -86.942497 -118.65415
-3.8993764 -80.462578 -144.717
-4.3790903 -90.659325 -118.52963
-4.9633708 108.70273 -168.92155
-3.4561026 -83.809639 -119.5274
-3.9396966 -42.985703 -178.13881
-3.4049895 78.2873 -108.511
-4.8117266 -101.19937 -118.19772
-3.7642004 -87.500351 -183.87944
-3.8502285 -29.20207 -175.45145
-3.4813097 81.032898 -108.152
-4.7883515 -51.044895 -122.64906
-3.9353316 -55.74931 -131.3082
-3.2197652 -4.55234 -95.582382
-3.5311821 -95.272598 -138.94701
-5.0599093 82.28447 -177.30322
-4.3976188 -98.247787 -115.01316
-3.2428675 -106.69026 -137.48106
-4.1353135 -96.909988 -118.96386
-3.6047056 68.600998 -177.336
-3.8328826 -65.347412 -137.92685
-2.7355616 52.291912 -104.07343
-3.8003247 21.232399 -95.434822
-3.6387455 74.278099 -178.062
-11.510626 56.716476 -108.00191
-3.8399501 48.025654 -101.54421
-3.3371644 -93.717003 -124.40158
-4.091053 116.50839 -126.11113
-3.8029456 63.873402 -175.981
-3.6943905 59.369171 -174.30768
-4.3185735 -78.433907 -154.62727
-4.892848 -87.610779 -116.70181
-3.9586229 52.653984 -172.4585
-4.3665819 -91.676651 -124.99335
-4.005559 -24.142717 -174.69249
-4.346046 86.476868 -111.84853
-4.1388025 -101.88355 -179.27274
-4.1476378 42.283112 -99.491058
-4.4776645 -92.677391 -182.63638
-3.869472 -83.910118 -134.48534
-4.2731795 75.629852 -112.68223
-4.8529792 -35.119183 -94.478836
-4.1931076 -86.50441 -125.64478
-4.3210483 -37.862164 -97.357407
-3.8976846 29.37849 -96.420731
-5.3239565 -87.927795 -134.82664
-4.7428637 -97.573517 -122.96857
-4.8862138 -73.022156 -147.05116
-4.8155069 -95.319824 -113.95407
-4.0975814 -112.20052 -166.79146
-4.6526222 -20.182802 -95.627831
-4.59547 -93.803276 -133.84323
-4.6957483 -80.877335 -153.93025
-4.172893 -95.727798 -145.69
-4.7415285 -86.465736 -123.15759
-5.0911913 85.185608 -114.32076
-4.2012033 -88.850899 -154.58701
-4.8006086 -9.7687407 -96.448242
-4.2879395 95.092003 -109.287
-4.9423599 -19.882647 -173.91943
-5.5721269 -91.011612 -130.19553
-5.017601 -69.804939 -181.45244
-4.4605918 -85.560158 -147.29767
-4.8242483 -107.88423 -173.57661
-4.4869752 113.05151 -119.04436
-4.566041 -86.212585 -130.69969
-5.5404191 -111.97372 -155.70712
-5.1481915 -65.418304 -139.08156
-4.4249749 77.972832 -116.5993
-5.1279969 -98.651283 -117.26633
-5.2513671 -99.72506 -178.90858
-5.2760534 -99.837067 -121.46142
-5.458869 83.920265 -111.40172
-4.8417926 -87.637413 -182.82857
-4.3713145 -82.471451 -139.40533
-5.8060265 117.03753 -153.91084
-4.7621112 -88.333351 -116.16801
-5.4738455 -81.922974 -157.31245
-5.1894603 -97.472748 -118.10999
-5.8928628 -82.201912 -159.65327
-6.0250235 -109.67342 -148.06281
-5.5903349 -88.774094 -118.18205
-5.2001438 -90.034508 -114.14619
-4.9358044 -17.647783 -95.974495
-6.0366163 -113.21396 -166.26634
-5.5179567 -87.849854 -127.27428
-4.8156095 78.115402 -110.001
-4.2750006 -64.399315 -181.37637
-4.5105352 -103.1532 -130.47221
-5.3841457 11.955549 -166.43329
-5.8187208 110.03125 -165.74092
-4.8693032 -94.733803 -150.743
-5.7146802 -9.3153868 -172.12831
-5.7512603 -55.833534 -179.34328
-5.0850325 -99.045403 -119.36359
-5.5062122 -112.28787 -164.28085
-6.2076139 -105.17455 -139.81152
-5.3592901 -86.790573 -138.26958
-4.9582496 80.993599 -109.562
-7.9858341 102.1552 -172.17203
-5.2914453 81.474052 -115.79217
-5.3145814 -79.508507 -156.29869
-5.4391518 -82.986496 -181.32361
-5.2986045 -87.106361 -152.61334
-6.0632968 -99.38736 -126.6973
-5.4642477 -93.456482 -116.9389
-5.3676267 -45.304539 -177.63695
-5.9597588 -89.656189 -124.53124
-6.6718388 -85.841805 -136.96542
-5.5656381 -87.350563 -121.82913
-7.5287271 -106.98631 -145.65732
-5.6180472 77.98069 -112.492
-5.5242586 -92.002647 -180.77032
-5.2701249 5.8414302 -167.62801
-7.1310945 105.0975 -170.75169
-5.4333415 -12.516356 -96.553177
-6.570941 -25.277662 -93.309921
-6.0782285 -96.384079 -116.50435
-5.3762717 -93.109001 -137.99001
-6.7351999 120.21487 -139.04088
-6.0601387 -101.1038 -177.52228
-6.3839898 7.6406813 -96.662048
-5.6015139 -87.747612 -180.49197
-5.8044925 -55.236057 -131.93599
-5.8188972 -111.89207 -168.95749
-5.8779082 -111.76642 -161.4874
-5.5463943 22.264799 -165.59599
-7.2256966 -78.637444 -148.11597
-6.5100718 -98.116592 -118.13245
-7.014811 -84.644249 -138.68489
-6.5510287 119.70237 -134.29437
-5.948833 -89.492661 -131.98921
-6.006741 -89.961281 -117.29768
-5.9217472 -76.753975 -152.80374
-5.6524701 108.959 -112.54
-7.0997996 -46.601818 -114.91697
-5.6290126 -96.412079 -119.47592
-5.686605 -3.3903501 -171.093
-6.1449304 -43.841522 -102.9265
-5.6462464 -107.63875 -173.14116
-5.7348847 1.17092 -169.491
-6.1370449 -12.365218 -92.141388
-6.5786233 118.79664 -129.90334
-6.2821398 -96.001022 -124.73158
-5.8036494 80.790802 -111.565
-6.2674227 -80.96286 -156.81795
-6.2533736 -89.833366 -126.84335
-6.7939186 -71.210304 -178.84418
-6.6093712 28.814764 -166.31523
-6.438642 -89.312042 -125.57047
-7.3924713 116.66962 -123.30973
-6.3206077 -61.486965 -137.77737
-6.9172616 -90.646355 -138.37602
-6.6325517 -110.55312 -170.24622
-6.9971786 -49.799843 -176.90434
-7.1207418 -31.404013 -172.82338
-7.2087107 -65.065247 -142.48297
-6.3292027 -16.852913 -92.223328
-7.2776017 -101.82535 -137.79727
-6.2179284 -10.1801 -96.428101
-6.7564759 -78.598022 -153.89539
-6.5164967 -92.356186 -122.82198
-6.9490833 -92.48085 -179.41051
-8.5214548 -44.785732 -108.12909
-6.3971767 -63.521843 -179.24405
-6.803863 -88.014244 -132.47995
-6.7510853 -89.932404 -124.39211
-7.286871 -117.8827 -167.3502
-7.6015372 -108.49972 -147.45184
-6.5738368 111.7817 -162.06035
-6.7997203 111.44365 -114.72666
-6.7327309 -81.277588 -141.29556
-6.7212181 -93.45504 -126.81241
-7.924428 -27.998384 -92.799736
-7.6066127 -112.1348 -165.27193
-7.3664494 -88.279869 -178.94302
-6.6112227 -92.831902 -144.867
-7.760973 -79.415833 -156.51639
-7.642004 -116.30893 -169.08913
-7.4704762 -34.735954 -95.764229
-6.7780285 -3.67906 -97.134003
-7.3211856 -79.309235 -176.33029
-6.8470087 -41.654594 -99.89212
-8.3018732 -55.102169 -131.56207
-6.9835601 107.28528 -168.71193
-7.5451655 -110.79914 -153.104
-7.1260333 -83.289078 -160.40077
-7.7028871 -68.18679 -147.35109
-6.9248729 -88.4478 -144.739
-7.0925717 -89.508965 -139.31183
-6.9580126 -79.694702 -144.29601
-6.9116936 -111.51757 -167.08559
-8.0440779 -30.55044 -93.778633
-7.828228 -50.423531 -122.66576
-7.7441635 -59.31316 -137.15202
-7.4985313 105.57135 -107.86752
-7.3157949 -107.51305 -171.53413
-8.3935452 -23.778351 -170.26671
-8.1114655 -79.954376 -175.67319
-7.5134277 -14.566829 -88.33432
-7.0858831 -92.319603 -150.65601
-8.513484 -85.089844 -165.66057
-7.1769462 -115.88331 -165.87596
-7.9476504 -22.338346 -90.981041
-7.3593426 37.567368 -168.16095
-7.1620054 -75.096634 -154.74532
-8.2008295 -83.639267 -163.79665
-7.2668519 -24.907206 -93.721413
-7.2204032 -89.672203 -151.017
-7.2091527 -12.579103 -171.1657
-8.1567783 -92.669189 -133.95056
-7.1986628 -98.697807 -131.54819
-7.252028 -9.7501097 -91.862
-7.686358 76.299637 -117.15034
-7.3310022 -56.429646 -176.93399
-7.814867 -109.76221 -163.64575
-8.1163969 -89.24324 -135.02896
-7.6943698 -109.86446 -148.8819
-7.8501034 20.929134 -96.669342
-7.975141 -119.28494 -166.3932
-7.4556594 94.023499 -106.622
-7.9383702 -109.59125 -160.18034
-8.024663 -96.717606 -132.88451
-8.0426102 -111.58601 -165.80705
-7.5883088 -8.0474501 -96.915604
-9.0060902 -68.268974 -174.11351
-8.259346 -10.732354 -88.032104
-7.8658528 119.26867 -146.40227
-7.9742002 -98.654442 -175.13116
-7.5090799 78.379944 -116.12373
-7.9608436 69.775467 -115.2356
-7.8867426 51.50388 -171.17784
-8.6364241 91.68383 -107.28322
-7.9020991 -63.942104 -143.00302
-8.2546549 -109.84232 -170.43022
-9.0936337 -114.95535 -170.1895
-8.1357584 -110.36768 -167.20953
-7.4689569 -105.81634 -148.15265
-8.3694124 -82.309845 -140.44086
-7.7815366 59.16048 -172.96884
-6.9164815 83.503242 -113.81847
-7.9881153 80.744003 -177.063
-7.9804454 51.813297 -104.22089
-7.9451923 98.195496 -103.89713
-9.1946526 -34.833019 -170.56876
-9.6684551 -109.23584 -155.57176
-8.5616512 -99.472778 -139.13284
-9.6026115 -102.8029 -145.27686
-8.1116457 67.623398 -176.03999
-8.6569853 -83.262001 -175.75464
-8.1345854 63.087299 -174.45399
-8.7358952 -86.91069 -138.30734
-9.046526 2.0096226 -97.964737
-8.2956228 48.040077 -102.16399
-8.9507675 -118.16142 -167.72101
-8.2089653 73.349998 -177.308
-9.3865433 111.10806 -112.02706
-8.4966431 -92.257835 -176.76114
-8.240345 -5.63661 -169.923
-9.0756054 -47.150009 -116.15591
-9.3633261 -72.589172 -171.86078
-8.4837847 -14.719211 -87.223106
-8.3313313 29.116964 -97.569336
-8.2619848 -25.065176 -3.2569253
-11.760283 115.29655 -116.55052
-8.7989492 41.19434 -100.03046
-9.1724567 -76.112099 -159.1794
-9.0933743 -96.056976 -137.711
-8.4530735 -72.422203 -153.91701
-9.869031 -109.00314 -169.41086
-9.04774 -106.89842 -147.9424
-9.3726234 -80.703827 -163.24422
-8.8594408 -107.07635 -161.73598
-8.6699438 -29.904402 -3.0723679
-9.5379038 95.46196 -102.36167
-9.1478701 -14.476676 -169.26881
-9.7444201 -44.290756 -170.7583
-10.198302 109.1729 -163.87148
-11.099451 -107.01752 -148.91245
-8.4855556 100.95175 -103.67397
-10.107144 -110.10704 -151.79268
-8.8979311 -105.41813 -147.47026
-8.5909386 -79.68074 -144.53259
-11.285547 7.9815326 -164.39984
-10.131189 -43.140663 -104.59397
-8.8100147 21.751339 -164.64368
-8.6473083 -8.1084442 -92.160538
-9.4046116 -85.699142 -166.18488
-8.715682 -12.593283 -86.575882
-8.8629789 -14.9547 -81.891075
-8.7555742 -1.11971 -168.42101
-8.9914522 -21.567785 -2.3718183
-8.793993 -27.367292 -93.424767
-8.9007549 -78.697166 -149.63354
-9.1283789 -87.847916 -175.76196
-9.4694614 -98.68573 -171.54082
-8.9955435 -27.192411 -5.8422966
-9.7695036 -106.56765 -158.38011
-10.216343 -121.4892 -167.72961
-10.354472 -103.37858 -150.37164
-9.0092564 -13.330608 -81.059189
-8.8867683 -51.626175 -125.93971
-9.7179537 -4.4499469 -98.876129
-10.297287 -83.852531 -161.6537
-8.9101582 -108.7365 -165.45399
-9.8028994 -89.207695 -138.80815
-10.282546 -17.407343 -6.7846789
-9.2907305 -79.853226 -156.43221
-9.0913448 -63.766602 -174.395
-9.3146219 -28.236858 -3.2300797
-10.617247 118.04714 -125.33371
-10.671048 -123.6748 -166.6916
-9.361042 -16.863125 -85.000534
-10.170473 -108.5092 -149.29179
-10.645477 -98.032021 -143.02893
-9.7909794 -86.100311 -168.39355
-9.4462414 -108.00201 -165.52013
-9.5678835 -89.275421 -165.81253
-9.6752529 -11.004854 -85.684929
-9.3985901 -81.479561 -141.58022
-9.7237444 -21.046144 -8.1823015
-9.7932825 98.854591 -100.93758
-10.697874 -107.31713 -150.93825
-9.3917532 -68.300301 -149.14101
-11.963327 -33.235306 -96.341904
-9.6084528 -110.41203 -166.52022
-9.8813744 -40.468929 -100.84505
-9.9318476 -24.908627 -88.885429
-9.7936859 -74.632439 -171.36649
-9.7900982 -21.553583 -2.2569919
-9.7305727 -26.474974 -91.056442
-9.901597 -22.211422 -3.1804152
-9.6831341 -91.217674 -174.19742
-10.000636 -23.936367 -9.3197651
-9.4370852 -20.622066 -9.1175156
-9.2417479 -105.14154 -168.23524
-9.7812557 -19.93177 -85.238686
-9.573287 -104.76096 -165.61269
-9.8921642 -6.9135594 -98.237152
-10.436188 -23.935249 -86.970749
-10.687184 -114.38392 -170.02647
-9.6416922 -64.656403 -145.328
-10.63518 -8.4388542 -87.061264
-9.3662739 -102.25299 -169.0331
-9.7169275 -84.129501 -173.78906
-10.531472 -109.18784 -150.46719
-9.9175358 -54.585976 -131.94722
-9.8626938 -61.071556 -140.18605
-11.033731 116.59613 -153.3922
-10.436221 119.90491 -134.05647
-9.8918343 -72.010147 -156.26694
-10.120638 -105.81624 -162.38039
-10.649734 119.08252 -129.68568
-9.8145247 26.8239 -165.005
-10.014062 -79.613503 -148.621
-10.130187 -20.788136 -11.805005
-11.288857 -16.50214 -65.540062
-10.156212 -16.431538 -7.106894
-9.9544821 -87.839104 -172.34877
-10.428634 -16.428988 -9.102562
-10.652475 -24.830843 -11.735579
-10.168792 -83.014946 -141.37378
-10.067377 -97.022614 -169.87402
-10.022383 -77.716164 -170.19171
-11.105901 10.685666 -98.983498
-12.244144 117.11898 -120.16724
-10.576846 104.12418 -103.04929
-10.982139 120.16393 -138.87534
-10.185679 -94.605515 -165.67024
-10.169532 -108.20304 -166.994
-10.953368 -100.97921 -148.09221
-10.161596 -76.652046 -163.66858
-11.160152 -102.23662 -148.55066
-10.500188 -20.034594 -75.570435
-10.528165 -93.141594 -140.71638
-10.051618 -16.73344 -55.38517
-11.430058 -54.978333 -168.67032
-10.220107 -88.265152 -169.96338
-10.157411 88.154114 -107.57825
-10.548713 -17.645342 -72.919052
-10.168481 -83.126007 -170.20393
-10.733882 -102.88255 -162.83952
-12.606941 -33.435684 -2.8766894
-10.504014 -44.569984 -109.24567
-10.207608 -29.786301 -93.543503
-10.511594 -99.112885 -164.74074
-11.16577 -11.364992 -71.610306
-13.780363 -43.536068 -163.3282
-10.285714 3.21381 -165.53799
-10.227713 -19.164858 -55.763317
-11.399218 -32.013275 -3.4248319
-10.337114 -8.3317699 -168.228
-10.863697 -82.604706 -157.27451
-11.314814 -87.541138 -162.39195
-11.073302 -106.10751 -157.24596
-10.325726 -17.234112 -60.625729
-10.568979 -74.199432 -164.94992
-11.017191 -63.295246 -146.36958
-11.062246 -118.77308 -168.04311
-9.9675446 -31.86157 -3.53284
-11.658045 -107.76485 -149.78134
-11.302406 -24.796532 -166.30991
-10.49413 -18.359116 -58.625244
-11.774027 -112.75393 -169.21201
-10.774425 -70.290916 -167.77039
-10.621793 -7.233561 -91.609787
-10.8367 -23.103384 -82.237747
-10.904795 -89.74424 -140.80672
-12.702373 106.2918 -166.96021
-10.583971 -18.109097 -2.3563509
-10.803867 -20.577641 -60.073856
-10.784664 33.442863 -165.74957
-11.900578 -123.16407 -167.57796
-10.723318 -102.56499 -159.37747
-10.721264 78.802933 -114.31973
-11.180367 -25.792921 -10.052739
-10.927011 -85.669037 -142.57358
-11.004205 -18.200186 -50.989944
-13.010475 -113.49992 -165.39757
-11.380957 -13.887793 -65.419098
-10.933536 -9.8992462 -84.602791
-11.121588 -82.644279 -148.99826
-11.495008 -16.756195 -11.871848
-10.835896 14.176274 -164.09875
-15.014823 -29.057486 -3.7426071
-11.164806 100.73804 -98.586555
-10.942352 -70.41687 -165.36642
-11.410412 -18.981037 -1.9203655
-10.891764 -57.92284 -137.53244
-10.688094 -14.551085 -60.337814
-11.288478 -104.11391 -153.01996
-10.920205 -15.3631 -50.642799
-11.757484 98.30069 -96.898476
-12.901535 -49.562363 -125.14307
-11.539785 74.517807 -116.82056
-11.91097 -50.976711 -128.56499
-11.607777 -104.72067 -156.79953
-11.81879 -38.132053 -165.83006
-12.247127 -121.06865 -167.96077
-10.974609 -13.130039 -56.965111
-11.018511 -49.195 -121.026
-11.489201 -63.041611 -148.50597
-11.687007 -102.47363 -154.34312
-10.990705 -66.532455 -166.07922
-11.300768 -11.691366 -53.718433
-11.992606 -107.99025 -153.7563
-11.377294 -94.461258 -161.355
-11.926998 -115.28826 -166.81149
-12.350934 -28.870098 -89.381416
-12.414044 -113.66929 -165.44571
-13.0068 94.006599 -173.84146
-11.718897 -51.99651 -130.85046
-11.170264 -14.565041 -23.876642
-11.664647 -20.224249 -64.865128
-12.227523 -31.159105 -164.64369
-13.040716 -47.450764 -164.40265
-13.185288 -30.766903 -95.036522
-11.181814 -4.4337401 -166.711
-11.270356 -16.214275 -20.848757
-12.653135 -22.457197 -164.64568
-11.929453 -21.303034 -57.944828
-11.21034 -19.89456 -3.1169462
-11.245029 94.13488 -100.66148
-12.861325 -112.87782 -166.59195
-11.517699 -20.482845 -68.570206
-11.349538 -47.665649 -116.39331
-11.450397 -12.189268 -22.554478
-11.590251 -17.444834 -24.627296
-11.652632 -57.288696 -168.53528
-11.465275 -28.624823 -92.036285
-11.47592 -13.508971 -19.243765
-11.664535 -53.909569 -134.38509
-11.83216 -100.26653 -152.90466
-15.151377 66.58606 -114.19226
-12.080201 108.76891 -105.72652
