# .PCD v0.7 - Point Cloud Data file format
VERSION 0.7
FIELDS x y z
SIZE 4 4 4
TYPE F F F
COUNT 1 1 1
WIDTH 1554
HEIGHT 1
VIEWPOINT 0 0 0 1 0 0 0
POINTS 1554
DATA ascii
44.57016 -40.903511 16.979959
87.695259 92.484215 17.287731
59.208015 107.75082 16.916273
52.749763 114.72234 16.754841
104.92057 84.617928 17.109087
9.342205 117.14416 16.834417
103.37595 2.8911767 15.524531
101.472 87.31739 17.430296
31.179403 -48.786362 17.460657
33.190155 -37.328335 15.739005
102.06837 29.21983 17.148977
92.794312 -30.557405 15.973479
55.05114 -40.798161 16.881647
94.136406 110.33395 17.05768
84.014267 111.10011 17.170111
15.22934 -44.810555 16.598501
23.144571 -34.057758 16.819973
11.393913 -37.825962 16.582861
118.19441 -46.715042 17.056801
48.553165 110.20641 17.058834
21.75083 117.4795 16.224941
9.1591902 -40.370468 15.139219
26.862789 -47.938004 16.267807
39.095375 -39.64706 16.964203
106.75086 52.316948 16.862391
23.679926 -35.978008 16.627535
29.35207 -40.809116 17.411514
120.00239 117.09885 16.57913
54.025707 109.58626 16.877247
60.825909 -50.782799 16.814734
96.499359 89.655991 16.43375
66.625938 117.85924 16.877129
101.69691 18.626408 16.567686
160.966 -2.3587482 16.660604
7.9152508 104.00971 16.179928
166.42439 105.92986 14.612544
63.308475 -39.483898 16.535162
104.68189 -38.717548 15.88421
160.79486 5.0561337 16.770222
19.248417 115.93103 15.440558
14.625642 112.96333 15.982923
138.06435 -48.509789 15.622446
30.590969 116.562 16.949316
92.512192 109.5519 16.405844
129.57289 119.08954 15.670277
109.69504 78.756256 18.553707
146.79399 -52.389309 15.271624
83.81076 -40.184017 17.201065
57.10751 112.60933 15.76183
171.69031 98.387222 16.191816
21.249176 108.47063 16.644081
69.846573 116.39962 16.099798
12.383374 106.1699 16.497684
76.964745 -20.90781 15.924817
67.975136 106.62602 16.729315
50.773209 111.90052 16.392323
5.1227236 -43.547218 14.298999
109.0238 56.986313 16.379503
81.091629 -13.372334 16.584082
71.01857 116.21432 15.940118
23.760706 109.09019 16.02298
80.300552 111.13097 16.521946
5.2143755 -42.577328 12.840513
74.281387 -24.726221 16.493116
30.133545 -37.704933 15.993029
93.488243 107.839 15.659882
145.85167 117.71401 16.247522
74.442635 113.67027 16.42992
58.973743 -39.794315 16.392929
3.8564906 116.25309 15.254587
88.915268 -35.605267 16.811966
17.117306 -33.022552 14.854365
83.392342 -9.9913425 16.313625
30.181963 111.72969 15.933778
39.280148 -48.730549 15.505985
34.809021 112.21703 16.255735
17.542641 -46.458611 14.837233
15.04449 -44.859833 14.731446
27.09737 115.45737 16.163467
33.275928 114.12434 16.256426
94.227127 90.50708 15.733163
11.498014 114.77859 15.597037
6.8920779 117.87036 16.286236
38.138821 -38.61438 15.781046
79.267944 108.40309 16.092869
54.448055 111.00505 16.02388
100.60325 109.83672 16.118326
67.191528 116.20355 15.721956
90.892975 -31.757864 16.185699
27.36693 110.26048 15.297333
154.8891 -48.848522 15.830222
150.88908 -50.894463 15.837386
32.946388 -49.324215 16.294758
111.86193 61.874268 15.990252
21.643377 -46.745266 15.986673
58.272743 108.67085 15.535469
85.877426 -8.0776625 15.395607
18.46323 113.93317 15.674788
73.36322 111.82261 15.94129
137.43234 119.14689 15.662946
86.322205 109.00562 15.998949
161.78304 -38.224281 14.244328
19.890392 109.06019 16.024725
90.139992 92.531708 15.341922
83.274414 105.46624 15.559544
140.67262 -49.959774 15.106649
12.485337 108.10666 15.549872
112.011 -45.786594 15.963995
162.60811 -2.8310571 15.293766
98.879501 89.963989 15.922396
52.478439 -49.395031 15.434776
158.89668 111.56783 15.427469
8.4903421 105.13045 14.405747
21.162144 -32.433018 14.917379
62.054192 -39.310863 15.487403
152.86172 115.6777 15.837382
163.45026 39.740826 15.656857
25.573708 -38.655483 15.269168
15.549532 110.79503 15.536876
27.485144 -39.977776 15.035704
72.939285 -49.546822 15.142826
19.027811 -32.984814 15.208574
161.33699 -46.691822 14.342741
101.20753 90.971535 13.201566
68.661522 107.57488 15.669682
59.141121 111.3476 14.635031
30.263992 -39.399994 15.054818
69.333221 111.30817 14.934709
64.948822 -37.668461 14.890475
92.433861 106.70987 14.739617
98.035561 107.72754 14.662437
102.57384 -5.6797085 14.912607
70.870056 109.32663 14.930793
101.33514 -6.5283656 15.591889
103.03461 -37.179611 14.825497
15.425067 -34.014954 12.036724
102.59607 -3.9168344 14.132996
115.66895 69.738205 14.869994
98.212547 -31.838461 15.22207
167.37 54.432396 15.380893
124.58575 -48.115128 15.369614
83.178246 -40.752987 14.747575
90.122803 -7.0357094 15.355096
133.04984 -50.163342 13.915517
106.40257 111.85334 15.352594
67.147942 110.01411 14.943322
-0.53745615 101.73843 13.800948
9.2075157 116.909 14.715638
165.76755 48.452477 14.706078
74.672638 -23.238909 14.359828
63.637173 109.07658 14.741292
56.453064 -39.245064 14.708936
3.0687034 114.08793 15.120386
33.776489 -37.992043 14.830075
69.898003 108.0111 15.120835
78.441971 -17.520851 14.423953
77.812653 107.20216 14.877923
88.042961 102.08232 14.452381
87.571892 95.874268 14.126899
121.92649 117.90389 14.595299
62.772511 -51.705032 14.139489
21.671234 112.13618 14.578386
80.067322 -13.511096 14.193488
162.6217 -56.488304 13.42407
11.578448 110.44558 14.57074
163.75175 -44.303238 13.580188
64.941795 110.48566 14.217466
22.717705 114.91798 14.30264
2.3087769 114.92554 14.766278
163.93129 -19.808603 13.351875
118.51345 -48.048904 14.455541
163.024 31.570198 14.868994
90.866013 105.22186 14.581296
58.104511 109.89734 14.805593
7.2749581 117.94093 15.001809
25.085003 112.5686 14.085585
38.873428 -39.228321 14.358559
82.161278 -10.221003 14.065864
88.190323 -35.336163 13.919863
106.73 -43.128197 14.640495
7.8963776 106.23392 14.098224
9.9576387 107.87054 13.748146
22.316572 -46.598907 14.551708
31.453379 -49.273525 14.618513
81.490181 101.22463 14.09508
62.238281 -39.353191 13.490705
49.522339 -39.566578 14.35552
116.28989 73.462646 13.911577
68.176575 -33.892372 13.859595
90.925018 -31.183441 14.243662
3.2511122 115.73161 13.92353
113.74542 115.18518 14.224279
162.40404 9.800209 14.157539
66.993294 -51.906925 13.822427
75.806625 -46.209408 13.828332
160.81033 -50.040028 14.371093
110.31432 80.485649 14.364169
139.06194 119.28152 13.873914
174.065 65.978691 14.318192
163.37848 2.2135689 13.707529
9.7348299 111.7513 13.487597
175.72301 71.98819 14.290193
102.14895 -37.139458 13.759503
23.615778 -36.187534 12.443012
98.083069 93.301605 13.096074
76.723061 -21.022924 13.162248
2.425442 111.25533 13.374979
163.10201 26.612398 14.194393
53.094227 -49.343731 14.251437
164.85704 -8.2068548 13.246441
38.180012 -48.334236 13.480906
96.439278 -32.379986 13.210241
83.996101 102.02489 13.881932
102.89048 8.2752419 16.118057
6.6378903 -42.1106 11.600253
166.03255 -24.256771 11.496885
19.849121 -32.07814 12.965158
47.928978 -41.636127 13.777262
39.305172 -41.587055 13.715117
35.226326 -39.495274 13.584696
93.462692 -29.913036 13.486796
99.209221 16.755716 12.549671
146.02615 -56.358177 13.562378
164.78578 -34.48243 12.201321
7.1826439 114.9813 13.701936
176.061 79.849991 13.867092
107.37853 111.85257 13.626026
34.918568 -48.712635 13.137383
94.923676 93.55191 13.062853
57.851265 -40.58873 13.296006
102.94026 108.20011 13.298146
99.677948 105.16456 12.814826
94.803337 -30.448498 13.778774
166.85487 -119.75473 13.692857
29.183954 -40.063606 14.443873
31.783545 -38.972 13.007648
91.861115 100.51888 13.371567
165.67361 -117.11784 13.561599
0.4599672 105.36127 12.984139
7.8023343 115.12009 13.457193
15.714849 -34.089375 11.09026
165.43039 -113.5673 13.062734
175.27 86.713089 13.579392
72.960556 -47.977901 11.717322
7.7378364 109.50684 13.185368
56.961174 -49.424519 12.98247
52.673397 -48.624199 13.220485
166.50166 -112.84611 12.863441
123.88808 -49.133114 13.404045
91.251785 96.107773 12.794291
73.458199 -26.470299 12.177276
53.785824 -44.415199 12.335719
26.454731 -40.787544 12.501629
171.70799 61.884197 13.437892
8.1707153 110.06972 12.939286
156.19672 -61.314369 12.644926
-0.24825591 103.68128 12.413377
83.220253 -38.603489 12.868757
24.330336 -46.210472 12.989473
1.7679799 112.24227 13.233506
134.39952 119.46858 12.762298
25.239573 -38.778507 13.089626
35.630959 -41.408199 13.197904
135.97348 -52.703903 12.630812
104.54465 90.009705 11.349071
162.95 21.556398 13.306793
29.747335 -47.77541 12.417623
101.69402 41.435089 13.619742
174.45216 91.594086 13.428994
99.613655 28.89502 13.006996
19.042751 -45.434063 12.519079
110.27255 -45.521553 13.017975
167.63832 -126.50471 12.457367
163.92551 108.58414 12.176026
17.125414 -32.211151 10.773128
168.52493 -113.4044 12.415475
48.443321 -44.372559 12.517915
105.63761 -42.194534 12.20785
103.28374 47.501904 12.966939
4.3132448 110.62766 12.269333
1.8167702 112.01022 12.427511
90.862617 -29.029993 11.457013
90.242821 98.739227 12.784954
89.372673 -6.964426 12.954102
6.0724015 -42.852795 11.533099
23.159573 -34.221928 12.059011
84.800102 -8.5929193 12.924096
61.541397 -50.180382 11.713949
99.044678 21.653879 12.629786
168.07439 -56.825581 11.835428
107.4813 85.711464 12.467177
76.231575 -43.78759 12.392679
28.943472 -42.007561 12.334401
130.84982 -51.032516 12.502241
120.02427 117.00349 12.159734
169.51154 -113.92142 11.793675
62.811947 -41.501549 11.431171
105.4636 52.487804 12.718026
45.170155 -46.405304 12.362943
150.68681 -105.70278 12.472637
56.53413 -47.104092 12.115384
78.91275 -40.703625 12.353982
63.580082 -39.406883 12.443697
98.822876 104.42317 12.066274
167.56308 -123.35357 11.996718
101.928 -39.428856 11.937509
1.1869826 106.67519 11.809267
170.52162 58.642719 12.353735
15.556009 -43.761089 12.027424
38.038258 -44.057652 12.452529
38.019386 -46.216335 12.072007
166.84673 -115.45658 12.009651
95.855621 96.344261 11.884975
146.88422 -60.206028 12.133888
153.51181 -105.75994 12.405364
95.15065 -31.286842 12.125153
98.715897 -6.6872964 10.484581
129.23689 119.02884 11.305049
79.019585 -18.651413 11.737754
99.230972 102.06387 11.213539
151.11598 -107.12101 12.286644
16.514839 -44.391346 11.585815
107.71909 56.253101 11.674346
68.621338 -35.917065 11.931814
148.96278 -107.15944 11.424988
164.11421 9.9106264 11.443359
146.08553 118.85548 11.962685
153.88132 -101.80933 11.772996
170.96899 102.07599 12.201192
27.166786 -44.487732 11.897828
165.55405 -63.584717 11.413751
156.39618 -91.01165 12.184647
152.043 -108.09205 11.826935
114.36473 114.56958 11.991849
167.93307 -121.06804 12.328677
149.1871 -91.786743 12.046365
93.067245 -28.907068 11.686749
153.38129 -108.68718 11.642162
168.14423 -8.4338779 10.429665
152.42592 -103.70634 12.104698
170.03845 -114.46897 10.592709
172.20303 101.09435 9.5330925
165.13922 -0.99113464 12.098074
155.64485 -86.994698 11.974882
153.34091 -65.988075 11.386077
155.912 -104.48275 11.833295
111.90821 62.497604 12.180989
34.175957 -47.560005 11.866682
34.701912 -44.393734 11.336973
168.60225 -53.719292 11.384693
33.390564 -42.176807 11.421131
81.586525 -11.878014 11.388981
150.57132 -103.14769 11.824236
23.865158 -39.05714 11.419602
99.163948 98.565727 10.768547
57.46191 -44.677216 11.738216
23.041044 -42.86602 11.521553
100.0385 2.0349348 11.783351
138.85034 120.14636 11.031789
67.633369 -50.762997 11.696343
102.65385 104.25388 10.811471
139.57294 -59.063656 11.109206
167.51151 -122.75009 10.704762
163.05672 109.91286 9.5540028
30.68675 -45.385689 11.091105
168.03983 -118.84885 11.109104
65.367737 -39.218281 12.275149
158.28311 -102.78775 10.819051
21.120768 -32.654903 11.564534
141.54715 -91.292122 11.057659
134.34889 -54.031487 11.620165
153.44415 116.50772 11.441098
169.17746 51.309181 11.557032
163.66 16.662598 11.635592
148.32681 -85.326614 11.575857
124.83135 117.90146 10.460112
166.9994 42.799534 11.685081
108.81694 -44.323967 10.556032
160.43054 -95.26281 11.502852
115.39693 70.05481 8.9937582
31.471666 -40.642307 11.696423
166.65889 -123.63739 10.654997
18.015011 -43.061501 10.246558
160.89293 -66.64119 11.603854
75.565651 -40.442154 11.5516
21.90844 -32.426468 11.712744
73.412155 -29.536863 11.02369
153.01927 -104.04839 11.301036
109.11617 110.2002 10.820329
167.52063 -70.206314 10.844916
34.098694 -45.992172 11.186233
77.419052 -22.658751 11.134494
113.09147 80.442039 10.637449
150.7769 -100.806 11.569846
161.80647 -104.08505 10.823874
151.13756 -107.10279 10.818992
69.96521 -48.97884 11.286237
15.647758 -32.58123 11.256665
150.11418 -107.59874 9.8812075
116.75 -47.811897 11.319195
73.209267 -38.044258 11.198982
100.50834 94.640526 11.04208
170.18567 105.64219 7.3762856
70.266754 -36.807594 11.428333
156.81613 -106.33169 11.09271
142.76746 -85.503113 10.948318
148.91319 -107.9258 10.226684
91.464828 -27.003176 10.668283
162.21608 -86.961655 11.31253
156.58574 -82.318565 10.862821
145.51947 -102.17644 9.9471903
145.1066 -62.492374 11.016105
84.442711 -9.6399155 10.546472
167.73734 -68.398827 10.613744
165.46669 -109.37589 9.78862
166.04401 36.326595 11.167692
164.45616 -98.81604 10.552816
147.97356 -104.18633 10.182895
149.84952 -109.18923 10.241982
128.70224 -51.536732 11.071497
150.3517 -103.40791 10.3557
169.12689 -14.162934 9.2907248
82.297958 -33.091324 10.547991
169.08522 -42.272015 10.395613
134.3909 119.93216 10.383745
117.1368 76.198166 8.1816206
66.492004 -49.283134 10.306179
124.02805 -50.032684 10.786495
65.282242 -41.982616 11.144871
141.90701 -98.10054 10.313348
114.75108 79.645973 8.8520794
16.353729 -41.93578 10.209589
7.2857985 -41.717808 9.6240873
88.922913 -7.3154044 11.259827
60.783836 -48.007736 10.867011
145.0687 -81.961067 10.628874
98.902596 10.783718 11.002487
164.98912 -75.725243 10.376833
60.941391 -45.392574 10.755072
161.8423 -105.88087 10.069066
80.264954 -30.394424 10.074052
104.57825 -42.913219 10.69068
22.091013 -36.391495 10.202119
67.623482 -41.079758 10.694096
140.08162 -90.55114 10.465066
167.04773 -108.63029 10.441298
13.962322 -35.657509 9.8434448
72.305023 -45.369823 10.517204
70.429413 -42.517105 10.246576
70.371948 -47.075005 10.564414
165.52901 31.605598 10.623093
161.94748 -84.000412 10.222298
166.41451 108.83443 7.0944753
140.06593 -86.940063 10.311894
68.934647 -44.226791 10.396735
157.73471 -106.78066 9.9620438
20.224861 -34.763458 10.40852
116.78963 114.44025 9.9492416
82.942764 -13.02178 9.1031866
164.7368 -103.27365 10.030924
150.61176 -110.242 9.5087643
151.478 -68.085495 10.380794
20.865074 -35.013573 9.9720545
114.09627 -46.117809 8.0125561
157.35239 -72.786232 9.8822603
169.9422 -33.266552 9.4596796
166.59149 -110.38714 9.5370502
165.53799 3.2138097 10.285692
170.85925 -84.001022 10.11145
132.93138 -55.125687 10.133816
170.19357 -87.709969 10.21279
171.96248 -66.501282 9.8695154
148.11682 -79.65802 10.037164
20.240757 -41.47768 9.9955235
81.092827 -19.604647 9.6829758
169.52168 -108.59177 9.5561399
170.74574 -77.893661 9.9789953
93.619194 -29.668211 10.083507
167.68384 -118.02519 8.8239698
98.625099 -37.167595 10.168595
166.32648 -98.933823 10.112474
164.04875 -76.803757 10.197062
172.65787 -89.135872 10.001784
109.7371 86.515076 9.1788197
165.78677 -96.050163 10.158857
169.83389 -98.196861 9.9825087
113.17854 111.792 9.2362432
170.06644 -115.28869 9.2918987
65.372665 -46.768688 9.9984627
9.3726177 -39.582115 9.415555
87.989929 -25.188972 9.7823391
18.398203 -38.304909 9.5863285
8.6656055 -39.734638 8.580801
132.87117 -96.720749 8.0321655
167.23299 -110.38277 8.0311146
173.81197 -85.194435 9.7754211
80.103416 -24.410307 9.0465984
103.15765 95.307915 9.064703
168.39914 -86.150902 9.8334799
144.63057 -64.273552 9.6298494
165.88722 -89.19664 9.4955835
13.870483 -34.530083 9.707284
169.37123 -116.12872 7.824368
176.7534 -49.824524 7.1011434
165.63072 27.06185 8.1638813
91.199379 -23.803471 9.4566107
165.52399 -107.22945 9.5928679
137.96828 -59.50243 9.6011114
174.37068 -91.149567 9.6216259
169.00645 -102.7149 9.3138638
141.25061 -81.844696 9.5332394
161.43529 -106.90814 8.8675013
155.91975 -108.984 9.7303228
166.3604 -118.96037 7.8131161
147.54173 -107.11213 8.5615759
163.53571 -80.855606 9.4176254
170.50914 -23.513618 8.191102
92.354385 -25.991068 9.4665251
11.731212 -36.770161 8.3686352
159.31104 -76.163307 9.2215242
167.4706 -104.97726 9.4391594
100.762 -40.787598 9.4461355
172.92839 -76.47052 9.1769476
156.95003 -80.07341 9.3161898
95.679184 -34.404404 7.7009835
149.14101 -68.300293 9.3917332
11.860628 -40.84021 9.0500736
103.5932 98.354927 8.0448809
15.022598 -38.29818 8.8619566
86.178185 -21.538479 9.0202656
174.32961 -96.6642 8.8507519
93.430969 -27.750191 9.2185078
97.834381 1.9761012 8.827198
137.02332 -89.12706 8.8865595
163.84857 -83.680595 8.3109598
14.588529 -34.538532 8.9765263
87.533302 -8.910079 9.261076
154.39175 -110.34987 8.3854618
85.266907 -20.237982 8.2965488
167.50626 -120.12864 8.5541153
107.69594 91.361145 8.4070797
103.53255 100.95985 8.5648584
148.18333 -105.56612 7.6188998
170.44818 -109.89899 8.1030722
176.75928 -56.051636 7.4159141
137.84734 -100.28417 7.8816309
133.735 -92.660698 8.1020088
147.48833 -105.48135 8.9184542
174.395 -63.766598 9.0913219
151.31746 -78.793655 9.0022554
164.64241 -84.851257 8.8375731
159.13699 113.05599 9.0464535
124.62653 -51.206993 8.4307308
173.97615 -101.62888 7.6516814
165.51236 -108.98222 8.7575998
98.355202 -4.7724395 8.9662352
173.4944 -74.948761 8.5915108
118.73929 -48.339378 8.7710943
177.26746 -74.881126 7.4234157
176.73013 -90.119026 8.7411346
147.24181 -78.925476 8.7487431
83.044067 -19.57123 8.7553396
164.907 16.829098 8.7601919
168.42101 -1.1197098 8.7555523
91.823898 -8.0191393 8.6555462
165.38402 21.768585 6.4486003
165.60648 9.8408499 8.1883802
161.5629 -82.277374 8.21381
140.41362 -82.499046 8.5620966
144.11743 -79.666557 7.9008284
165.30499 -84.94442 8.4420891
160.98784 -109.53168 7.7889075
100.06315 41.630642 8.5410528
97.698669 30.048317 8.2612791
131.39117 -55.094872 8.237196
84.177986 -15.642576 7.9126348
152.71507 -73.020721 7.3995366
155.8631 -79.061943 7.5494833
176.49768 -82.731964 8.1040125
163.73148 -109.76568 7.9437594
102.12038 47.978783 8.0912066
92.823654 -27.763845 8.0211287
165.836 -112.52231 7.7416539
91.927345 -20.688309 7.2499824
169.923 -5.6366096 8.2403221
96.697205 20.713051 7.891046
177.308 73.349991 8.2089424
167.10803 -111.46131 6.9528108
137.72639 -86.540283 7.8520098
138.2059 -60.329239 7.710988
174.45399 63.087296 8.1345625
178.97681 -88.479477 7.3947563
176.03999 67.62339 8.1116228
173.21342 -31.8645 6.8570318
144.62566 -106.79466 7.1733737
104.25127 52.250359 6.237637
85.504265 -17.653782 7.4473081
89.64975 -10.022923 7.4099922
177.063 80.743996 7.9880924
112.51422 63.808338 5.7970281
144.99559 -65.459053 8.128211
172.69693 58.686413 8.1120853
110.12766 107.929 7.4274883
170.31169 -110.9539 7.0783658
134.24326 119.65401 6.3132739
139.06589 120.16561 6.4703188
169.45547 43.160355 7.4858122
130.13123 118.82968 6.4782133
176.14799 87.14209 7.7308426
93.540596 -25.340834 7.531714
148.86603 -78.42086 7.4457283
167.3277 -117.64381 7.1553106
165.88879 -115.68114 7.2018194
116.78101 74.785065 7.1911249
106.38703 -44.963253 6.131135
178.71074 -71.39827 6.8484101
152.67171 -111.01266 7.0373497
145.79291 119.35786 6.5163269
146.42616 -108.3217 7.0411763
96.915604 -8.0474491 7.5882959
171.27762 -9.4625626 6.8928256
87.48243 -19.558338 7.3815656
159.92395 -83.276825 6.9071145
175.00456 92.536797 8.0397825
106.622 94.023491 7.4556451
126.44556 -94.084648 6.701879
126.31274 117.00939 4.7977338
171.85188 -107.11274 7.3291011
131.74028 -89.45372 7.0676427
179.3513 -92.473526 6.9972906
155.94421 -76.503708 7.1630774
140.68958 -63.451546 7.2173281
99.877739 -41.684975 6.6211648
131.306 -87.131516 5.9059033
151.017 -89.672195 7.2203832
145.05701 -90.351189 7.205564
90.426079 -11.946524 6.4674573
153.80701 116.95699 7.1354833
167.40509 34.096874 7.1592336
161.46008 -111.76575 5.8451891
150.65601 -92.319595 7.0858631
180.18759 -86.870056 5.7085981
96.770355 11.721903 6.8805017
128.35022 -98.520142 6.6201563
107.669 104.67099 7.036725
93.678261 -31.668608 5.6532116
148.12968 -109.99177 5.1807799
139.177 -89.043396 6.9435039
164.45619 -112.29143 5.4880815
144.739 -88.447792 6.9248538
173.28566 -16.740639 5.4247885
178.37561 -97.534836 6.5154581
124.19334 -51.75898 5.8439298
113.57341 -46.999531 4.7325826
91.707268 -17.165649 6.44415
136.33875 -104.20788 5.6019664
126.15395 -90.775581 6.3581705
141.4507 -81.084724 6.8537354
96.607277 -7.4327235 5.3366604
129.43867 -53.714905 4.727109
93.563904 -24.64212 6.2546711
138.00981 -82.943481 4.2263575
125.20671 -89.353416 6.5713282
155.15579 -78.881073 2.9018905
144.867 -92.831894 6.6112037
176.3943 -102.83302 6.0693493
160.13371 -82.289124 6.1344228
121.10337 -92.463295 6.3114643
162.10715 111.96378 6.2112017
166.10965 -113.11384 6.0547075
117.9885 -97.801971 6.5786762
179.25418 -63.516281 6.3738208
150.68198 -74.151451 5.9814873
171.43224 -109.16105 6.0148969
139.4035 -83.235016 5.5899668
102.29251 -43.978901 4.6885042
116.12718 -90.090958 5.8310838
127.11987 -88.374138 5.8126817
117.75607 -88.753487 5.1693306
154.77829 -78.576935 4.4908519
135.1283 -88.052597 5.5170889
96.378738 -11.192584 5.7141018
179.36699 -57.830605 5.8555636
118.71828 -88.490555 5.7553229
94.945709 -20.950871 5.9195309
157.56026 -82.091652 5.6328936
137.96767 -90.718651 6.8756509
168.76434 -112.01246 5.7561126
96.377502 3.1674528 5.6562653
174.64659 -22.533693 4.0845852
138.6747 -86.800232 5.4446692
150.836 -87.759895 5.9860234
180.81461 -92.153191 5.4603558
116.43096 -96.432655 6.1090565
127.18709 -100.27946 5.6634746
120.63537 -97.763359 5.6654596
94.153152 -34.72509 4.5361423
144.23833 -86.065033 5.0449762
116.79874 -94.273499 5.3343067
182.99608 -89.821892 4.6880016
181.80453 -71.346062 4.7955117
111.67973 82.491592 5.805192
176.25993 -27.246042 2.5446312
106.90495 100.8834 5.832768
118.52116 -100.5981 5.3444901
94.193604 -16.117895 5.4020963
119.04411 -98.013771 5.2611222
169.491 1.1709199 5.7348623
175.18109 -105.74091 5.2861724
171.093 -3.3903499 5.6865826
129.98157 -90.107475 5.9222322
114.07955 -88.049812 4.3230991
123.76098 -86.792824 4.9898305
112.41631 77.956757 5.6056123
121.02919 -100.33738 5.0625839
152.92072 -112.09142 2.9876122
114.31429 81.410172 5.5974751
178.77318 -101.42104 4.8794246
119.189 -89.026031 5.1051879
124.52171 -89.547096 5.9773993
134.46301 -93.794479 4.6966958
179.71014 -54.505482 5.1163855
168.53191 108.84351 5.2084031
138.96579 -65.211517 5.2054424
119.705 -84.273514 3.8066797
181.65793 -81.868851 5.2068572
130.53738 -103.20393 4.4770565
137.99001 -93.108994 5.3762536
122.28456 -90.526253 4.9932365
127.05624 -87.711441 5.045949
117.90844 -48.424129 3.9526219
96.553497 -14.448199 5.3218055
172.62512 104.01678 2.0986481
175.98592 -34.047207 4.2510681
167.62801 5.8414297 5.270103
114.36111 84.868225 5.1932373
116.09216 80.425674 5.1003413
115.42583 -88.416855 4.3160586
115.54351 -87.214355 4.3033853
131.11255 -86.098778 4.5412393
117.13476 -98.523689 5.1867518
127.9174 -92.074951 4.4781132
143.84464 -80.550644 4.4579201
149.0202 -85.65889 4.4763389
166.65817 11.071495 5.0764675
153.87323 -80.915726 4.69766
119.27874 -98.712898 5.0480471
165.905 17.302599 4.978713
114.19434 -96.251617 4.6886835
109.562 80.993591 4.9582353
120.96133 -87.399208 4.7288604
120.20082 -96.776573 4.2569294
157.90179 -112.39981 4.7773104
170.13278 -110.55982 4.4562907
113.72654 -94.404152 4.6439357
150.743 -94.733795 4.8692832
122.37791 -97.309433 4.6709657
164.70409 111.42846 4.8890758
117.54386 -101.23252 4.5089345
112.09415 86.60141 4.4127526
110.001 78.115395 4.8155951
125.85 -86.627449 4.2767439
147.61067 -74.4282 4.2306857
166.9187 -112.15768 3.9765425
96.605156 -17.433388 4.5380883
157.88354 -81.254868 4.0322113
96.620529 -11.541275 4.4449468
130.71114 -55.70586 3.1440065
153.799 117.03399 4.6246634
99.520302 -41.323097 4.6064758
110.186 84.489792 4.6017451
115.11961 -90.073463 4.1543431
122.19192 -102.40774 3.6826973
112.06916 -92.451942 4.0967174
110.49271 96.956764 2.6943429
116.6239 77.674149 4.3281507
113.52563 89.715057 3.1287956
97.418259 -37.94614 4.2558727
95.768082 -6.2408743 3.5647025
94.028625 -28.846766 3.1111784
114.53019 -97.917503 4.0841556
117.36043 111.429 3.2402766
183.57297 -80.265686 3.6338098
118.09769 -86.867302 4.223547
117.29632 -96.988914 3.8510704
148.65334 -110.81119 2.861733
114.36929 108.24887 2.7370515
117.60314 -91.784691 3.6133139
157.92615 -85.732872 4.1417546
112.83417 92.188843 2.9277642
112.00185 93.940819 2.555124
114.09396 -88.2659 2.6048412
113.1749 75.322914 4.1054606
109.29313 59.379364 0.11997475
154.58701 -88.850891 4.2011833
114.2455 -87.686073 3.6115074
157.20267 -84.261086 3.9801292
145.69 -95.727791 4.172874
159.789 114.022 4.1457629
98.122124 36.585014 4.1743279
96.28299 28.460762 3.9924138
157.59451 -87.18235 3.8248699
134.54442 -86.408913 3.2389209
95.782425 -36.986294 2.9011195
163.39981 -113.34018 2.7012849
112.98546 -96.345551 2.9438076
99.818146 43.355774 3.9769664
180.6031 -53.59948 3.6187396
95.422058 21.528568 3.725271
154.99699 -83.804092 3.9387434
182.19385 -97.871964 3.3183539
174.42273 59.690937 3.7246857
171.84082 49.580399 3.7902782
123.69191 -93.844238 3.1802859
101.43703 47.863194 3.556493
175.981 63.873398 3.8029225
115.17805 -90.821495 2.795537
120.22102 -84.977089 1.6731364
182.23952 -64.997643 3.2769961
105.84312 -44.8708 2.2382829
138.08395 -65.337318 4.0313301
151.18451 -78.890427 3.8700349
183.99602 -89.773964 3.5370374
140.12109 -85.523552 3.6255324
121.7149 -50.364841 3.3237631
167.03336 112.46223 3.3907964
178.45284 74.34288 0.53025085
177.336 68.60099 3.6046822
95.739532 -24.745687 2.4826009
132.97871 118.6167 3.3778987
177.49226 81.557526 3.6668193
136.77945 -95.284546 3.108242
108.152 81.03289 3.4812953
156.08543 -81.173721 3.0000472
110.48759 75.963829 2.9461539
167.88782 32.060768 3.1329706
95.932983 7.9555006 3.2730162
108.511 78.287292 3.4049752
116.30345 74.819633 3.3280547
115.67531 -85.172676 2.5666764
149.18594 -84.967003 3.3806238
108.73071 -45.518814 3.2457173
169.20398 111.36996 2.8683023
135.79663 -106.78701 2.1694648
153.01152 -80.546829 2.7219508
175.15453 94.191994 2.1676331
164.71072 113.42551 2.3895242
108.666 85.050896 3.2133152
114.38123 68.578117 3.0871
93.694366 -32.190891 2.1706529
139.70349 119.18054 2.7542336
185.0584 -86.543114 3.1020558
115.54359 -86.699478 2.5241723
113.42493 -87.513298 2.2855146
155.69655 -83.205704 2.5097146
115.71826 -47.102932 1.8866081
163.37068 112.64407 2.2305627
114.4784 74.304489 2.7328975
184.51012 -93.37056 2.771946
95.560684 -7.4049001 1.7869714
149.42685 -78.0504 2.4596052
113.13139 -87.824699 2.2383971
111.25426 -92.575325 2.2479398
178.46524 -104.36485 2.4538836
125.2813 -85.880981 1.9372896
168.51376 -112.18256 1.0775337
111.538 103.87399 2.8987653
155.32899 -89.864494 2.8973534
112.7029 64.865944 2.4515858
174.43616 -108.09396 2.5881581
146.19766 118.43541 2.0983217
152.21695 -78.548584 1.9822924
144.54817 -73.742821 1.4370748
167.34288 28.627726 -0.28177169
110.414 87.179893 2.7390451
134.49857 -82.971039 2.4324994
113.50806 -88.163742 1.0391865
140.0197 -82.052307 3.05007
173.78105 -7.7862186 2.6541772
114.94457 -100.17408 2.1113343
120.37084 -83.213829 2.3891776
163.8495 118.67862 2.0086305
118.42912 -83.424881 2.1108174
170.54549 1.6392918 2.7335649
165.00439 119.67428 1.9765748
127.85054 115.90343 2.0658062
181.53366 -49.175282 2.5360429
178.02878 -33.608311 2.4906955
128.45494 -85.609947 1.283731
175.33397 -14.709938 2.3942904
111.32117 70.244637 2.20504
168.11253 7.3010178 2.3727176
183.5351 -62.387135 2.3116372
168.72911 114.48889 1.4990065
115.70864 -92.776245 1.6020235
98.215599 -17.333092 1.5665013
153.532 117.13899 2.3323233
124.19862 -85.761292 2.6046216
175.9129 -21.106607 2.1826112
166.36449 23.468851 0.24001992
154.07935 -79.104477 1.2898802
144.34781 -84.719543 1.0758544
114.23222 89.558922 1.6390535
98.61438 -38.971741 2.0830853
95.3517 -2.4100659 1.5455148
166.58469 17.797184 0.18167792
185.77428 -88.101166 2.2131677
167.18294 13.383364 -0.08468727
113.63904 -90.360985 -0.27157664
118.19644 -102.26261 2.1008918
182.08691 -99.836594 2.0735252
184.95087 -74.587318 1.8731434
139.87312 -108.05504 1.2030817
102.919 -43.590496 1.9218655
131.90022 -58.371552 1.688706
158.54369 114.76019 0.39855966
100.567 -41.532295 1.8973156
110.69848 71.464836 1.1303004
128.87971 -95.794067 1.7556765
137.30824 -65.937149 0.59443909
134.35593 117.95729 1.7258492
109.67654 66.46418 1.2312444
117.29998 -94.078896 1.6623572
151.26711 -79.224838 1.1096332
162.73218 118.32863 1.0030909
169.51755 113.3966 1.0254743
166.31184 -113.25481 -0.084578633
153.74255 -77.930595 1.3433454
142.19981 -71.276802 0.24078411
114.75088 90.019165 0.15266643
161.89565 112.77895 -0.03278916
108.30937 78.172531 0.091137916
110.95167 75.158325 1.0717454
108.11449 80.735161 0.011782154
135.12589 -85.99366 1.4800885
108.614 85.072891 1.1701852
145.7368 157.61774 0.63003731
121.09763 -49.211243 -0.47296581
147.64619 -78.440788 0.68017614
110.17351 87.006767 0.37511355
147.61057 -80.462769 0.0080301277
98.030678 -22.16185 -0.0099863149
119.98643 -84.537552 0.20853968
97.270607 -24.744106 -0.066967621
144.07188 157.37154 0.55806118
153.56001 116.34161 -0.0087031024
116.89715 -85.299881 0.19592963
131.44266 115.67437 0.0091710743
123.97684 112.42332 0.014594911
114.30386 92.75016 0.044191144
163.29834 115.38595 0.28858775
117.35679 107.83724 -0.0017375399
136.36441 117.0868 0.041099399
114.2679 103.21178 0.0096767051
100.43292 -39.542046 -0.01466796
141.0869 117.36425 0.0098061925
113.89166 -88.396301 -2.4346457
143.97803 -109.23392 -2.4245725
158.75656 134.0818 0.24546322
113.33217 94.986046 -0.26433244
115.00902 -85.841293 -2.2648752
113.52264 97.430847 -0.0052353921
95.023384 -29.359699 -0.023829024
114.79364 -86.809761 -0.24100883
147.22351 117.18336 -0.022712415
94.181679 -32.439228 0.044934154
110.97247 66.22377 0.040976729
149.4559 -111.23086 -2.1669307
106.49678 -44.066879 -0.0011283651
102.64915 -42.140572 -0.027115187
94.756126 -34.996338 0.0080637587
124.15636 -85.144806 -0.076977313
161.05527 -113.79333 -0.021762151
97.859642 -38.147133 0.0082162721
109.88856 -45.034416 -0.069709264
114.69408 -91.079048 -0.062472235
125.06223 -104.43463 -0.73243117
163.57736 -113.76937 -0.75944692
175.41663 -107.84865 -0.06910488
125.38248 -104.50741 0.74366456
180.65456 -102.5676 -0.016277216
117.83773 -102.09212 -2.2404516
115.87905 -100.80042 -3.0071604
113.88981 -98.947189 -1.7104813
184.36385 -96.017685 0.026621541
130.39354 -96.399384 -0.0044987896
138.91435 -95.812332 0.11776933
145.12399 -95.89769 -6.3435714e-06
118.16099 -94.87999 -0.020540396
150.088 -95.166389 -6.5605545e-06
115.54182 -93.389542 -0.39303067
186.08205 -89.785919 0.003301756
156.19 -90.063591 -6.827282e-06
113.42793 -87.707954 -3.1640162
159.03101 -87.819496 -6.9514658e-06
128.34859 -85.632477 -1.1465975
160.116 -85.396996 -6.9988923e-06
125.53264 -85.986023 -2.0346305
186.16719 -82.853989 0.058514643
122.72929 -84.819252 -1.7819636
149.34801 -84.316093 -6.5282088e-06
158.91901 -83.337189 -6.9465705e-06
155.59599 -82.605896 -6.8013169e-06
142.40791 -81.627762 -0.15117222
153.60114 -77.771828 -0.97458583
184.37755 -63.503937 -0.01560272
129.8793 -56.239414 -0.39889413
127.02546 -53.045753 -0.05848442
182.50415 -49.793476 -0.0030686175
177.36696 -26.958429 0.018048868
176.28699 -16.674618 -0.063115105
98.507645 -17.321678 -0.53769708
97.170967 -13.861975 1.3358657
95.565529 -7.7557254 -1.4297084
174.33955 -6.9559855 0.011445809
171.35008 1.4484099 -0.078868791
95.713158 7.381989 0.070877723
168.33665 7.9479361 -0.48232362
95.036232 21.485455 -0.047064442
96.123138 29.652912 0.10546474
99.223663 41.863987 0.16234788
172.46875 51.248489 -0.032187998
174.74062 59.16309 0.15191457
112.31207 64.918655 -0.69732267
176.651 64.240395 -7.72166e-06
109.27597 66.60051 -0.73730427
177.951 69.09079 -7.7784853e-06
177.82632 81.311485 0.003728837
108.82339 85.098785 -0.37573138
171.14841 107.72441 2.3897531
170.98792 108.51295 -2.0196693
164.61263 113.57172 -2.1058047
166.21796 120.16389 -0.4797982
143.96532 157.20105 -0.29498652
144.56494 157.86407 0.97810507
137.07225 -107.26604 -1.9944874
133.59906 -82.858971 0.056609631
162.29727 118.75366 -0.40987599
145.57991 158.13416 -0.38953239
113.48236 -87.36927 -2.0324984
135.17027 118.62751 -2.56602
151.78801 -79.349579 -1.1851873
112.35942 -94.666473 -0.0012986914
111.18839 -92.426437 -1.1199166
163.26776 118.40323 -1.6438189
168.62447 114.96909 -1.3296727
144.97691 157.36263 -1.0448238
154.4774 -79.355568 -1.634626
111.32178 74.548241 -0.78543627
119.65866 -84.985565 -1.6936604
116.95055 -85.783195 -1.8615961
110.13275 87.177376 -2.1897988
147.866 -78.344795 -1.0807965
115.50345 -91.466553 -2.7199743
114.04184 -88.214371 -3.224972
124.34763 -85.768181 -2.6448798
97.120117 -13.681364 -3.1173022
172.51881 104.23901 -2.4060228
146.54539 118.65285 -2.8537874
142.33331 -70.984756 -1.490256
118.17358 -47.539688 -0.31145778
164.91011 119.77029 -1.992364
127.88622 -52.851173 -3.8062389
168.03256 -112.29784 -2.0214093
164.25081 118.77654 -2.0798173
120.79156 -83.483849 -2.3155169
118.89323 -83.170792 -2.2275651
152.69453 -111.97887 -3.327569
111.17663 69.783943 -2.1746101
139.45284 119.05572 -2.536258
117.8886 -94.347397 -1.6277047
114.10715 89.278908 -1.889248
115.6993 -86.755768 -2.9266493
151.64117 -78.813988 -3.2807996
114.15566 74.46096 -2.59411
174.33521 -108.15244 -2.6781948
112.85735 64.943863 -2.5896199
130.44528 -95.914108 -1.6644537
136.37305 -64.415085 -1.9349183
110.99142 66.193565 -1.8949882
93.767731 -29.21689 -3.5836771
178.02663 -104.82661 -2.4869709
131.26091 117.81233 -2.766433
96.233536 -37.403896 -1.9696506
93.6269 -32.18359 -3.1735027
105.832 -44.790695 -1.8245746
181.92267 -100.09734 -2.1236215
185.72417 -84.234085 -2.0190012
94.184982 -34.806 -3.0829666
99.608284 -41.394516 -3.8079324
158.47 114.89399 -1.9170769
102.59254 -44.090221 -3.4748595
98.720505 -39.048935 -2.0202346
134.78375 -82.933472 -2.512728
168.18011 112.3595 -3.1418495
112.41012 63.737946 -4.8703952
184.38879 -93.825714 -2.7285211
162.44612 -113.17179 -3.0598469
149.30379 -77.84774 -2.5799093
185.57661 -89.679581 -2.149363
149.78241 -84.820328 -3.1818712
117.66214 111.41926 -2.9510338
165.98296 17.620171 -4.5610514
142.14386 -85.153069 -3.1526341
111.16595 96.355484 -2.2565887
134.62727 -86.034164 -2.0956452
183.04713 -58.654881 -2.3836453
95.061905 -25.493958 -3.1762223
109.72974 99.225021 -3.4600558
164.18985 112.68885 -3.1371865
176.14182 -26.002502 -2.3232605
125.42668 114.97005 -2.400105
175.58417 -17.128157 -2.4441273
153.532 117.13899 -2.3323367
97.295509 -17.136911 -3.4886942
155.29395 -83.641426 -3.6996844
113.16883 -96.29631 -3.1275792
140.12086 -82.049538 -2.8193781
117.70351 -48.289593 -3.5819678
174.22147 -9.1586866 -2.5930896
178.2907 -34.617767 -2.4830449
115.52444 -90.125587 -4.247129
181.78665 -50.409824 -2.5242581
171.4801 -0.40366194 -2.3545468
152.91582 -80.495987 -2.729841
114.30074 108.20564 -2.6736188
113.2218 92.129333 -2.6580427
166.55513 113.89865 -2.9817791
115.20555 71.211136 -3.164629
95.921036 7.7216773 -3.2205529
111.66221 -92.48513 -3.6496799
122.61671 -102.50484 -3.6317952
175.09479 93.636269 -5.176507
155.07297 -78.912636 -2.7109497
184.5071 -70.328239 -1.910686
117.87363 -92.834991 -3.0954995
130.41341 -105.48802 -1.7591015
112.9022 -46.82655 -4.510078
156.87039 -81.20517 -3.2025335
157.68019 -87.078842 -3.7587204
169.66133 -110.80544 -4.4519262
181.50583 -57.617043 -3.2274501
155.32899 -89.864494 -2.8973668
110.41303 103.57684 -3.8317606
127.51959 -87.715645 -5.0466137
183.42963 -78.736336 -3.6954224
135.05254 -86.989975 -4.3846478
116.36549 75.254272 -3.2823083
110.49021 75.979103 -2.9919999
182.61635 -97.434753 -3.0730608
113.1991 89.250687 -3.8429089
130.6021 -94.633484 -3.1866987
162.29112 112.88203 -3.0752254
106.89031 -45.198925 -3.9040029
157.07794 -84.196762 -4.0003939
114.37402 -87.551407 -3.7112567
184.92242 -86.461288 -3.2246218
169.82762 40.648705 -3.6584322
108.666 85.050896 -3.2133248
157.90942 -85.732346 -4.1935143
117.57874 -88.406609 -4.6729732
118.65415 -86.94249 -4.3343854
144.717 -80.46257 -3.8993702
118.52963 -90.659317 -4.3790851
168.92155 108.70272 -4.9633632
119.5274 -83.809631 -3.4560974
178.13881 -42.985699 -3.9396889
108.511 78.287292 -3.4049847
118.19772 -101.19936 -4.8117213
183.87944 -87.500343 -3.7641926
175.45145 -29.202068 -3.8502209
108.152 81.03289 -3.4813049
122.64906 -51.044891 -4.7883463
131.3082 -55.749306 -3.9353259
95.582382 -4.5523396 -3.2197611
138.94701 -95.272591 -3.5311759
177.30322 82.284462 -5.0599012
115.01316 -98.24778 -4.397614
137.48106 -106.69025 -3.2428615
118.96386 -96.909981 -4.1353083
177.336 68.60099 -3.6046979
137.92685 -65.347404 -3.8328764
104.07343 52.291908 -2.7355571
95.434822 21.232397 -3.8003204
178.062 74.278091 -3.6387379
108.00191 56.716473 -11.510621
101.54421 48.02565 -3.8399458
124.40158 -93.716995 -3.3371589
126.11113 116.50838 -4.0910478
175.981 63.873398 -3.8029377
174.30768 59.369167 -3.6943829
154.62727 -78.433899 -4.3185668
116.70181 -87.610771 -4.8928432
172.4585 52.65398 -3.9586155
124.99335 -91.676643 -4.3665762
174.69249 -24.142715 -4.0055513
111.84853 86.47686 -4.3460407
179.27274 -101.88354 -4.1387944
99.491058 42.283108 -4.1476336
182.63638 -92.677383 -4.4776568
134.48534 -83.91011 -3.8694663
112.68223 75.629845 -4.2731743
94.478836 -35.119179 -4.8529754
125.64478 -86.504402 -4.1931024
97.357407 -37.86216 -4.321044
96.420731 29.378489 -3.8976805
134.82664 -87.927788 -5.3239503
122.96857 -97.573509 -4.7428579
147.05116 -73.022148 -4.8862071
113.95407 -95.319817 -4.8155017
166.79146 -112.20051 -4.0975738
95.627831 -20.1828 -4.6526179
133.84323 -93.803268 -4.5954638
153.93025 -80.877327 -4.6957417
145.69 -95.727791 -4.1728864
123.15759 -86.465729 -4.7415228
114.32076 85.1856 -5.091186
154.58701 -88.850891 -4.2011967
96.448242 -9.7687397 -4.8006043
109.287 95.091995 -4.2879348
173.91943 -19.882645 -4.9423523
130.19553 -91.011604 -5.5721211
181.45244 -69.804932 -5.0175934
147.29767 -85.56015 -4.4605856
173.57661 -107.88422 -4.8242407
119.04436 113.05151 -4.4869699
130.69969 -86.212578 -4.5660353
155.70712 -111.97371 -5.5404119
139.08156 -65.418297 -5.1481857
116.5993 77.972824 -4.4249701
117.26633 -98.651276 -5.1279922
178.90858 -99.725052 -5.251359
121.46142 -99.837059 -5.2760482
111.40172 83.920258 -5.4588642
182.82857 -87.637405 -4.8417845
139.40533 -82.471443 -4.3713083
153.91084 117.03752 -5.8060198
116.16801 -88.333344 -4.7621064
157.31245 -81.922966 -5.4738383
118.10999 -97.47274 -5.189455
159.65327 -82.201904 -5.8928561
148.06281 -109.67341 -6.0250173
118.18205 -88.774086 -5.5903296
114.14619 -90.0345 -5.2001386
95.974495 -17.647781 -4.9358001
166.26634 -113.21395 -6.0366092
127.27428 -87.849846 -5.5179515
110.001 78.115395 -4.8156047
181.37637 -64.399307 -4.2749929
130.47221 -103.15319 -4.5105295
166.43329 11.955548 -5.3841381
165.74092 110.03124 -5.8187137
150.743 -94.733795 -4.8692966
172.12831 -9.3153858 -5.7146726
179.34328 -55.83353 -5.7512522
119.36359 -99.045395 -5.0850272
164.28085 -112.28786 -5.5062051
139.81152 -105.17455 -6.2076077
138.26958 -86.790565 -5.3592844
109.562 80.993591 -4.9582448
172.17203 102.1552 -7.9858265
115.79217 81.474045 -5.2914405
156.29869 -79.508499 -5.3145742
181.32361 -82.986488 -5.4391441
152.61334 -87.106354 -5.2985978
126.6973 -99.387352 -6.0632915
116.9389 -93.456474 -5.4642429
177.63695 -45.304535 -5.3676186
124.53124 -89.656181 -5.959753
136.96542 -85.841797 -6.671833
121.82913 -87.350555 -5.5656328
145.65732 -106.98631 -7.5287204
112.492 77.980682 -5.618042
180.77032 -92.00264 -5.524251
167.62801 5.8414297 -5.2701173
170.75169 105.09749 -7.1310873
96.553177 -12.516356 -5.4333372
93.309921 -25.27766 -6.5709372
116.50435 -96.384071 -6.0782237
137.99001 -93.108994 -5.376266
139.04088 120.21486 -6.7351942
177.52228 -101.10379 -6.0601306
96.662048 7.6406808 -6.3839855
180.49197 -87.747604 -5.6015062
131.93599 -55.236053 -5.8044868
168.95749 -111.89207 -5.8188896
161.4874 -111.76641 -5.8779011
165.59599 22.264797 -5.5463872
148.11597 -78.637436 -7.2256904
118.13245 -98.116585 -6.5100665
138.68489 -84.644241 -7.0148053
134.29437 119.70236 -6.5510225
131.98921 -89.492653 -5.9488273
117.29768 -89.961273 -6.0067358
152.80374 -76.753967 -5.9217405
112.54 108.95899 -5.6524649
114.91697 -46.601814 -7.0997949
119.47592 -96.412071 -5.6290073
171.093 -3.3903499 -5.6865978
102.9265 -43.841518 -6.1449256
173.14116 -107.63874 -5.6462388
169.491 1.1709199 -5.7348776
92.141388 -12.365217 -6.1370406
129.90334 118.79663 -6.5786176
124.73158 -96.001015 -6.2821341
111.565 80.790794 -5.8036447
156.81795 -80.962852 -6.2674155
126.84335 -89.833359 -6.2533684
178.84418 -71.210297 -6.7939105
166.31523 28.814762 -6.609364
125.57047 -89.312035 -6.4386368
123.30973 116.66962 -7.3924656
137.77737 -61.486961 -6.3206019
138.37602 -90.646347 -6.9172559
170.24622 -110.55312 -6.6325445
176.90434 -49.799839 -6.9971709
172.82338 -31.404011 -7.1207342
142.48297 -65.065239 -7.2087045
92.223328 -16.852911 -6.3291984
137.79727 -101.82534 -7.277596
96.428101 -10.180099 -6.2179241
153.89539 -78.598015 -6.7564692
122.82198 -92.356178 -6.5164909
179.41051 -92.480843 -6.9490752
108.12909 -44.785728 -8.52145
179.24405 -63.521839 -6.3971686
132.47995 -88.014236 -6.8038573
124.39211 -89.932396 -6.7510796
167.3502 -117.88269 -7.2868633
147.45184 -108.49971 -7.601531
162.06035 111.78169 -6.5738297
114.72666 111.44364 -6.7997155
141.29556 -81.27758 -6.7327247
126.81241 -93.455032 -6.7212129
92.799736 -27.998383 -7.9244242
165.27193 -112.13479 -7.6066055
178.94302 -88.279861 -7.3664412
144.867 -92.831894 -6.6112161
156.51639 -79.415825 -7.7609658
169.08913 -116.30892 -7.6419969
95.764229 -34.73595 -7.4704719
97.134003 -3.6790597 -6.7780242
176.33029 -79.309227 -7.321178
99.89212 -41.654591 -6.8470044
131.56207 -55.102165 -8.3018675
168.71193 107.28527 -6.9835525
153.104 -110.79913 -7.5451589
160.40077 -83.28907 -7.1260266
147.35109 -68.186783 -7.7028809
144.739 -88.447792 -6.9248662
139.31183 -89.508957 -7.0925655
144.29601 -79.694695 -6.9580064
167.08559 -111.51756 -6.9116859
93.778633 -30.550438 -8.0440731
122.66576 -50.423527 -7.8282228
137.15202 -59.313156 -7.7441578
107.86752 105.57134 -7.4985266
171.53413 -107.51305 -7.3157878
170.26671 -23.778349 -8.3935375
175.67319 -79.954369 -8.1114578
88.33432 -14.566828 -7.5134239
150.65601 -92.319595 -7.0858765
165.66057 -85.089836 -8.5134773
165.87596 -115.8833 -7.176939
90.981041 -22.338345 -7.9476461
168.16095 37.567364 -7.3593349
154.74532 -75.096626 -7.1619987
163.79665 -83.639259 -8.2008228
93.721413 -24.907204 -7.2668481
151.017 -89.672195 -7.2203965
171.1657 -12.579103 -7.2091455
133.95056 -92.669182 -8.1567726
131.54819 -98.6978 -7.198657
91.862 -9.7501087 -7.2520237
117.15034 76.299629 -7.6863532
176.93399 -56.429642 -7.3309946
163.64575 -109.76221 -7.8148599
135.02896 -89.243233 -8.1163912
148.8819 -109.86446 -7.6943636
96.669342 20.929132 -7.8500991
166.3932 -119.28493 -7.9751334
106.622 94.023491 -7.4556546
160.18034 -109.59124 -7.9383636
132.88451 -96.717598 -8.0246572
165.80705 -111.58601 -8.0426035
96.915604 -8.0474491 -7.5883045
174.11351 -68.268967 -9.0060825
88.032104 -10.732353 -8.2593422
146.40227 119.26866 -7.8658462
175.13116 -98.654434 -7.9741926
116.12373 78.379936 -7.5090752
115.2356 69.775459 -7.9608388
171.17784 51.503876 -7.8867354
107.28322 91.683823 -8.6364193
143.00302 -63.942101 -7.9020929
170.43022 -109.84232 -8.2546473
170.1895 -114.95534 -9.093626
167.20953 -110.36767 -8.1357517
148.15265 -105.81633 -7.4689507
140.44086 -82.309837 -8.3694057
172.96884 59.160477 -7.7815289
113.81847 83.503235 -6.9164762
177.063 80.743996 -7.9881077
104.22089 51.813293 -7.9804411
103.89713 98.195488 -7.945188
170.56876 -34.833015 -9.1946449
155.57176 -109.23583 -9.6684484
139.13284 -99.472771 -8.5616446
145.27686 -102.80289 -9.6026058
176.03999 67.62339 -8.1116381
175.75464 -83.261993 -8.6569777
174.45399 63.087296 -8.1345778
138.30734 -86.910683 -8.7358885
97.964737 2.0096223 -9.0465212
102.16399 48.040073 -8.295619
167.72101 -118.16141 -8.9507608
177.308 73.349991 -8.2089577
112.02706 111.10806 -9.3865385
176.76114 -92.257828 -8.4966354
169.923 -5.6366096 -8.2403374
116.15591 -47.150005 -9.0755997
171.86078 -72.589165 -9.3633184
87.223106 -14.71921 -8.4837809
97.569336 29.116962 -8.3313265
3.2569256 -25.065174 -8.2619848
116.55052 115.29654 -11.760278
100.03046 41.194336 -8.7989454
159.1794 -76.112091 -9.1724491
137.711 -96.056969 -9.0933676
153.91701 -72.422195 -8.4530668
169.41086 -109.00313 -9.8690233
147.9424 -106.89841 -9.0477333
163.24422 -80.703819 -9.3726158
161.73598 -107.07634 -8.8594332
3.0723681 -29.9044 -8.6699438
102.36167 95.461952 -9.5379
169.26881 -14.476675 -9.1478624
170.7583 -44.290752 -9.7444124
163.87148 109.17289 -10.198296
148.91245 -107.01751 -11.099444
103.67397 100.95174 -8.4855509
151.79268 -110.10703 -10.107138
147.47026 -105.41812 -8.8979244
144.53259 -79.680733 -8.5909328
164.39984 7.9815321 -11.285541
104.59397 -43.140659 -10.131185
164.64368 21.751337 -8.810008
92.160538 -8.1084433 -8.6473045
166.18488 -85.699135 -9.4046049
86.575882 -12.593282 -8.7156782
81.891075 -14.954699 -8.8629751
168.42101 -1.1197098 -8.7555676
2.3718185 -21.567783 -8.9914522
93.424767 -27.36729 -8.7939882
149.63354 -78.697159 -8.9007483
175.76196 -87.847908 -9.1283712
171.54082 -98.685722 -9.4694538
5.8422971 -27.19241 -8.9955425
158.38011 -106.56764 -9.769496
167.72961 -121.4892 -10.216336
150.37164 -103.37857 -10.354465
81.059189 -13.330607 -9.0092535
125.93971 -51.626171 -8.8867626
98.876129 -4.4499464 -9.7179499
161.6537 -83.852524 -10.297279
165.45399 -108.73649 -8.9101515
138.80815 -89.207687 -9.8028927
6.7846794 -17.407341 -10.282545
156.43221 -79.853218 -9.2907238
174.395 -63.766598 -9.0913372
3.2300799 -28.236856 -9.3146219
125.33371 118.04713 -10.617242
166.6916 -123.6748 -10.671041
85.000534 -16.863123 -9.3610382
149.29179 -108.50919 -10.170466
143.02893 -98.032013 -10.645472
168.39355 -86.100304 -9.7909727
165.52013 -108.00201 -9.4462347
165.81253 -89.275414 -9.5678768
85.684929 -11.004853 -9.6752491
141.58022 -81.479553 -9.3985834
8.1823025 -21.046143 -9.7237434
100.93758 98.854584 -9.7932787
150.93825 -107.31712 -10.697867
149.14101 -68.300293 -9.3917465
96.341904 -33.235302 -11.963323
166.52022 -110.41203 -9.6084461
100.84505 -40.468925 -9.8813705
88.885429 -24.908625 -9.9318438
171.36649 -74.632431 -9.7936783
2.2569923 -21.553581 -9.7900982
91.056442 -26.474972 -9.7305689
3.1804156 -22.21142 -9.901597
174.19742 -91.217667 -9.6831264
9.319766 -23.936365 -10.000635
9.1175165 -20.622065 -9.4370842
168.23524 -105.14153 -9.2417412
85.238686 -19.931768 -9.7812519
165.61269 -104.76095 -9.5732803
98.237152 -6.913559 -9.8921604
86.970749 -23.935247 -10.436184
170.02647 -114.38391 -10.687177
145.328 -64.656395 -9.6416864
87.061264 -8.4388533 -10.635177
169.0331 -102.25298 -9.3662672
173.78906 -84.129494 -9.7169199
150.46719 -109.18784 -10.531466
131.94722 -54.585972 -9.9175301
140.18605 -61.071552 -9.8626871
153.3922 116.59612 -11.033724
134.05647 119.9049 -10.436215
156.26694 -72.010139 -9.8918276
162.38039 -105.81623 -10.12063
129.68568 119.08251 -10.649729
165.005 26.823898 -9.814518
148.621 -79.613495 -10.014055
11.805006 -20.788134 -10.130187
65.540062 -16.502138 -11.288855
7.1068945 -16.431536 -10.156211
172.34877 -87.839096 -9.9544744
9.1025629 -16.428986 -10.428633
11.73558 -24.830841 -10.652475
141.37378 -83.014938 -10.168785
169.87402 -97.022606 -10.067369
170.19171 -77.716156 -10.022375
98.983498 10.685665 -11.105897
120.16724 117.11897 -12.24414
103.04929 104.12418 -10.576842
138.87534 120.16393 -10.982132
165.67024 -94.605507 -10.185673
166.994 -108.20303 -10.169525
148.09221 -100.9792 -10.953362
163.66858 -76.652039 -10.16159
148.55066 -102.23661 -11.160146
75.570435 -20.034592 -10.500184
140.71638 -93.141586 -10.528158
55.38517 -16.733438 -10.051616
168.67032 -54.978329 -11.430051
169.96338 -88.265144 -10.220099
107.57825 88.154106 -10.157406
72.919052 -17.64534 -10.548709
170.20393 -83.125999 -10.168473
162.83952 -102.88254 -10.733874
2.8766901 -33.43568 -12.606941
109.24567 -44.569981 -10.504009
93.543503 -29.786299 -10.207603
164.74074 -99.112877 -10.511587
71.610306 -11.364991 -11.165766
163.3282 -43.536064 -13.780355
165.53799 3.2138097 -10.285707
55.763317 -19.164856 -10.227711
3.4248323 -32.013271 -11.399218
168.228 -8.331769 -10.337108
157.27451 -82.604698 -10.86369
